-58.2747 14.4775 614.954
-58.0477 14.2162 615.244
-57.2628 13.9427 615.048
-56.9935 13.9391 614.905
-57.5322 13.9464 615.191
-56.7265 13.936 614.786
-57.8051 13.9509 615.371
-57.3025 15.5624 615.567
-57.5532 15.5612 615.508
-57.8017 15.5594 615.427
-58.0445 15.5561 615.286
-57.0527 15.5639 615.636
-56.4619 13.9334 614.692
-56.1975 14.199 614.616
-55.9532 14.4697 614.761
-58.2695 15.2801 614.944
-58.297 15.5555 615.25
-56.0004 15.0186 615.311
-56.2715 15.2913 615.488
-56.1988 13.9313 614.614
-55.9391 14.198 614.591
-55.6973 14.4694 614.764
-56.8049 15.566 615.728
-56.5548 15.5675 615.797
-56.0244 15.2936 615.591
-56.2996 15.5676 615.811
-58.539 14.48 615.044
-58.5029 14.7389 614.679
-58.4961 15.0049 614.622
-58.7651 14.7409 614.749
-58.75 15.0048 614.605
-58.317 14.2198 615.385
-58.8052 14.4829 615.153
-58.078 13.9554 615.55
-57.2769 13.678 615.184
-57.0034 13.6734 614.996
-57.55 13.6825 615.366
-57.2833 13.4113 615.237
-56.7303 13.6688 614.812
-56.9985 13.4041 614.928
-57.8227 13.6869 615.544
-56.46 13.6649 614.656
-58.0945 13.691 615.71
-57.3228 15.8364 615.799
-57.5743 15.8353 615.749
-57.0718 15.8377 615.858
-57.8239 15.8337 615.677
-58.0744 15.8324 615.618
-58.3221 15.8304 615.53
-58.5395 15.5521 615.109
-56.8201 15.8387 615.909
-56.1967 13.6627 614.576
-55.938 13.9297 614.563
-55.6813 14.1971 614.571
-58.5131 15.2772 614.817
-58.7584 15.2748 614.708
-55.7766 15.2957 615.686
-55.5029 15.0222 615.481
-55.4699 14.7449 615.099
-55.5313 15.2985 615.812
-56.0466 15.5683 615.85
-55.936 13.6612 614.525
-55.6766 13.9279 614.503
-55.4271 14.1972 614.592
-55.1953 14.4714 614.88
-55.1771 14.1985 614.661
-56.568 15.8397 615.956
-56.3135 15.8401 615.979
-55.7967 15.5699 615.924
-58.5847 14.2231 615.508
-59.0679 14.485 615.225
-59.0259 14.7425 614.803
-59.0046 15.0049 614.596
-59.0058 15.273 614.623
-59.2821 14.743 614.809
-59.2564 15.0043 614.558
-58.3487 13.9593 615.704
-58.8478 14.2252 615.584
-58.6139 13.9619 615.801
-59.3252 14.4857 615.242
-58.3656 13.6949 615.867
-58.1046 13.425 615.801
-57.562 13.4171 615.479
-57.2728 13.1408 615.109
-56.7138 13.3969 614.617
-57.8361 13.4217 615.671
-57.5629 13.149 615.473
-56.4428 13.3929 614.453
-56.97 13.1295 614.605
-57.84 13.1543 615.698
-56.1826 13.3914 614.406
-58.3682 13.4272 615.88
-58.1074 13.1573 615.817
-57.3326 16.1077 615.92
-57.5842 16.1065 615.87
-57.0817 16.109 615.98
-57.8364 16.1056 615.826
-56.8292 16.1099 616.023
-58.0882 16.1046 615.78
-58.3381 16.1031 615.713
-59.0271 15.5464 614.86
-56.5755 16.1105 616.053
-55.9263 13.3908 614.402
-55.6747 13.6594 614.467
-55.4183 13.9269 614.479
-59.2543 15.2715 614.551
-55.5479 15.5718 616.012
-55.283 15.3005 615.905
-55.2542 15.024 615.568
-55.2226 14.747 615.201
-55.0035 15.0253 615.635
-54.9718 14.7481 615.264
-54.9459 14.4729 614.958
-55.2979 15.5735 616.087
-55.0308 15.3015 615.956
-55.808 15.8418 616.065
-55.6681 13.3898 614.379
-55.4104 13.657 614.376
-55.1619 13.9265 614.476
-54.9242 14.1989 614.699
-54.6927 14.4734 614.994
-54.9059 13.9261 614.478
-54.6699 14.1991 614.722
-56.3222 16.1112 616.09
-56.0698 16.1123 616.137
-55.5576 15.8434 616.135
-58.872 13.9628 615.823
-59.1064 14.2262 615.611
-59.2719 15.5438 614.748
-58.6259 13.6964 615.911
-59.1262 13.9627 615.803
-58.8817 13.6967 615.909
-58.6267 13.4282 615.905
-58.3662 13.1584 615.844
-57.5441 12.8766 615.258
-57.2327 12.8637 614.664
-57.7767 12.8719 615.008
-56.682 13.1216 614.257
-56.4153 13.1186 614.139
-56.1605 13.1183 614.15
-56.9314 12.8529 614.173
-55.9095 13.119 614.203
-58.6226 13.159 615.847
-58.8807 13.4282 615.883
-57.3421 16.3789 616.038
-57.5923 16.3774 615.972
-57.0921 16.3806 616.107
-56.8416 16.3821 616.172
-56.5879 16.3828 616.204
-56.3336 16.3833 616.231
-55.6511 13.1179 614.175
-55.4023 13.387 614.27
-55.1494 13.6553 614.321
-55.3076 15.8451 616.212
-55.047 15.5749 616.154
-54.7778 15.3023 615.999
-54.7527 15.0266 615.701
-54.7211 14.7494 615.33
-54.5009 15.0277 615.757
-54.4701 14.7506 615.393
-54.4402 14.4741 615.04
-55.0571 15.8467 616.283
-54.7945 15.5759 616.204
-54.525 15.3032 616.046
-55.8183 16.1136 616.195
-55.5665 16.1148 616.25
-55.3812 13.1141 614.021
-55.1339 13.3836 614.133
-54.89 13.6541 614.285
-54.6517 13.9262 614.501
-54.4177 14.1998 614.77
-54.6334 13.6535 614.279
-54.1693 14.2015 614.861
-56.0819 16.3846 616.286
-55.8322 16.3865 616.364
-55.316 16.1164 616.321
-59.1344 13.6964 615.874
-57.1884 12.586 614.172
-56.6562 12.8479 613.961
-56.397 12.8466 613.924
-56.1417 12.8462 613.928
-55.8877 12.8461 613.947
-56.9077 12.5799 613.902
-56.6435 12.5775 613.808
-55.6275 12.8446 613.899
-56.6073 16.6573 616.431
-56.3541 16.6582 616.471
-56.1015 16.6593 616.517
-55.3591 12.8411 613.759
-55.1132 13.1107 613.887
-54.8713 13.3815 614.059
-54.8037 15.8475 616.324
-54.5382 15.5758 616.212
-54.2486 15.0286 615.81
-54.2197 14.7519 615.465
-54.2726 15.3042 616.098
-53.9978 15.03 615.88
-53.9427 14.4776 615.219
-54.8158 16.1201 616.476
-54.5506 15.8484 616.368
-54.2835 15.5763 616.239
-54.018 15.3046 616.127
-55.5817 16.3882 616.434
-55.0925 12.8381 613.639
-54.8537 13.1094 613.847
-54.1494 13.928 614.618
-53.921 14.2033 614.955
-53.9013 13.9298 614.714
-54.5978 13.1089 613.847
-53.6733 14.2053 615.057
-53.6523 13.9313 614.799
-55.8505 16.6608 616.581
-55.6015 16.6631 616.67
-55.0802 16.3915 616.574
-56.9006 12.3108 613.81
-56.6404 12.3092 613.759
-56.3856 12.5764 613.784
-56.1301 12.5759 613.785
-55.8728 12.575 613.768
-55.611 12.5731 613.7
-56.3824 12.3081 613.733
-55.3451 12.5703 613.589
-56.378 16.9343 616.747
-56.1245 16.9352 616.786
-55.8736 16.9369 616.853
-55.0812 12.5679 613.498
-54.8345 12.8371 613.615
-54.564 16.1214 616.536
-54.2963 15.849 616.4
-53.7471 15.0315 615.951
-53.6962 14.4799 615.336
-54.0284 15.5766 616.261
-53.7656 15.3057 616.181
-53.5132 15.3067 616.236
-53.4233 14.2067 615.134
-54.8303 16.3935 616.654
-54.5803 16.3954 616.736
-54.3123 16.1228 616.598
-54.0408 15.8492 616.419
-53.7757 15.5776 616.313
-55.352 16.6652 616.754
-54.5814 12.8372 613.646
-55.0843 12.301 613.516
-54.3457 13.1094 613.891
-53.8839 13.657 614.498
-53.6312 13.6576 614.541
-53.4019 13.9325 614.871
-54.3276 12.8372 613.671
-54.0757 12.8377 613.716
-53.1721 14.2078 615.199
-53.3794 13.6583 614.595
-53.1489 13.9331 614.914
-55.6241 16.939 616.936
-55.375 16.9414 617.027
-55.1011 16.6669 616.824
-54.8484 16.6681 616.875
-56.3872 12.0416 613.77
-56.1257 12.3073 613.721
-55.8671 12.3061 613.69
-55.6068 12.3045 613.639
-55.3449 12.3026 613.57
-56.1277 12.0402 613.727
-55.356 12.0374 613.678
-55.6477 17.2156 617.215
-54.8261 12.2998 613.489
-54.5689 12.5666 613.49
-55.0999 12.0368 613.674
-54.0592 16.1239 616.645
-53.7867 15.8499 616.456
-53.2462 15.0346 616.106
-53.2244 14.7595 615.837
-53.2602 15.3077 616.284
-53.1975 14.4833 615.509
-53.5236 15.5788 616.372
-53.2703 15.5798 616.419
-53.005 15.308 616.31
-52.9187 14.2083 615.24
-54.5964 16.6696 616.934
-54.3493 16.6726 617.051
-54.08 16.3994 616.899
-53.5357 15.8516 616.528
-55.1233 16.943 617.089
-54.316 12.5668 613.523
-54.8472 12.0369 613.709
-54.5712 12.2995 613.499
-54.0647 12.5673 613.576
-53.3595 13.385 614.35
-53.128 13.6592 614.655
-53.1095 13.3862 614.425
-52.8966 13.9338 614.966
-54.322 12.3004 613.574
-53.8203 12.5695 613.708
-53.5783 12.8402 613.885
-54.0788 12.3028 613.719
-53.5829 12.5733 613.922
-52.944 14.4839 615.55
-52.8765 13.6601 614.715
-52.6438 13.9345 615.013
-55.397 17.2175 617.288
-55.1497 17.2205 617.4
-54.8725 16.9448 617.162
-54.6154 16.9448 617.165
-56.1375 11.7747 613.82
-55.8691 12.039 613.696
-55.882 11.7741 613.822
-55.6128 12.0382 613.689
-55.3826 11.7754 613.957
-55.6301 11.7743 613.864
-55.6749 17.4935 617.532
-55.4214 17.4946 617.576
-54.6004 12.0383 613.812
-54.8724 11.7746 613.976
-55.1387 11.7774 614.091
-53.8267 16.4005 616.946
-53.555 16.1266 616.766
-53.2847 15.8532 616.601
-52.9907 15.0348 616.126
-52.9716 14.7604 615.888
-52.733 15.0343 616.121
-52.7146 14.7601 615.889
-52.6898 14.4843 615.584
-53.0145 15.58 616.437
-52.7465 15.3074 616.297
-53.0324 15.8545 616.662
-52.7602 15.5806 616.473
-52.414 14.21 615.347
-54.369 16.9481 617.29
-54.099 16.6746 617.132
-54.1223 16.9514 617.415
-53.8459 16.6758 617.183
-53.5765 16.4025 617.031
-53.3046 16.1285 616.848
-54.3595 12.0411 613.983
-53.8424 12.3067 613.943
-53.3424 13.1126 614.136
-53.592 13.1115 614.06
-52.8596 13.3874 614.502
-52.8496 13.1166 614.369
-52.6098 13.3887 614.582
-52.6056 13.1193 614.516
-52.6258 13.6612 614.785
-52.3928 13.9356 615.081
-53.3359 12.843 614.045
-53.3529 12.579 614.224
-54.1256 12.0454 614.234
-53.6166 12.3131 614.292
-52.4362 14.4849 615.624
-52.3734 13.662 614.837
-52.1415 13.9367 615.148
-55.1763 17.4984 617.714
-55.9088 11.512 614.1
-55.6044 11.5013 613.565
-53.5936 16.6773 617.244
-53.054 16.1304 616.929
-52.7797 15.8558 616.718
-52.4753 15.034 616.118
-52.4577 14.7599 615.894
-52.491 15.3076 616.319
-52.2208 15.0345 616.152
-52.1827 14.4856 615.668
-52.5082 15.582 616.538
-52.5278 15.8572 616.785
-52.1611 14.2108 615.397
-51.9051 14.2107 615.41
-53.3614 16.9548 617.556
-53.3447 16.6799 617.346
-53.0769 16.407 617.213
-52.3614 13.3904 614.679
-52.3638 13.1225 614.69
-52.1213 13.1256 614.859
-52.1133 13.3921 614.782
-52.1224 13.663 614.906
-51.8875 13.9371 615.184
-52.2009 14.7597 615.899
-51.926 14.4854 615.675
-51.8709 13.664 614.97
-51.6293 13.9364 615.172
-53.0974 16.683 617.467
-52.8247 16.4085 617.278
-52.5504 16.1336 617.068
-52.2574 15.5837 616.618
-52.2381 15.3087 616.373
-51.9664 15.035 616.189
-51.945 14.7597 615.917
-51.9879 15.3106 616.46
-51.6693 14.4852 615.682
-52.0077 15.5859 616.713
-52.2979 16.135 617.13
-52.0287 15.8617 616.978
-51.6486 14.2105 615.418
-53.1156 16.9585 617.696
-53.3766 17.2295 617.748
-53.1323 17.2338 617.907
-52.8646 16.9607 617.778
-52.8458 16.6848 617.541
-52.5696 16.4092 617.31
-51.8672 13.3944 614.909
-51.62 13.3965 615.026
-51.6174 13.6645 615.013
-51.6896 14.76 615.941
-51.3611 13.6643 615.021
-51.3696 13.9353 615.14
-51.3889 14.2094 615.389
-52.5908 16.6856 617.575
-52.3176 16.4108 617.379
-52.0485 16.1374 617.23
-51.7568 15.5877 616.794
-51.712 15.0356 616.226
-51.7349 15.3117 616.515
-51.4556 15.0357 616.24
-51.4335 14.76 615.958
-51.481 15.3125 616.562
-51.4105 14.4844 615.665
-51.7793 15.8641 617.079
-51.5044 15.5891 616.859
-51.7988 16.1398 617.329
-51.5273 15.8657 617.151
-52.8839 17.2368 618.02
-52.6097 16.9615 617.815
-53.4012 17.5074 618.05
-53.1531 17.5106 618.166
-52.9041 17.5135 618.273
-52.6296 17.238 618.065
-52.3567 16.963 617.875
-52.3369 16.6867 617.624
-51.1041 13.6639 615.023
-51.1085 13.9338 615.094
-50.8504 13.9332 615.083
-51.1253 14.2073 615.313
-51.1477 14.4825 615.601
-52.0854 16.6887 617.703
-51.8177 16.4156 617.571
-51.5472 16.1416 617.406
-51.2489 15.5895 616.888
-51.1996 15.0358 616.259
-51.2244 15.3126 616.576
-51.1724 14.7587 615.915
-50.9645 15.3117 616.551
-51.2721 15.8663 617.185
-50.9897 15.5889 616.873
-51.5642 16.4169 617.628
-51.2927 16.1425 617.449
-51.012 15.8654 617.16
-52.6518 17.5154 618.343
-52.3758 17.2393 618.117
-53.4367 17.7891 618.477
-53.1819 17.7902 618.517
-52.9308 17.7926 618.602
-52.6758 17.7937 618.642
-52.3979 17.5168 618.395
-52.1236 17.2412 618.19
-52.106 16.9654 617.964
-51.833 16.6904 617.771
-50.8597 14.2046 615.213
-50.5975 14.2028 615.153
-50.3351 14.201 615.091
-50.6148 14.4766 615.381
-50.8816 14.4797 615.496
-50.908 14.7564 615.832
-51.8533 16.967 618.031
-51.5816 16.6924 617.852
-51.3114 16.4184 617.693
-51.0361 16.1429 617.47
-50.9377 15.0343 616.209
-50.6693 15.0308 616.079
-50.6392 14.7527 615.696
-50.6974 15.3086 616.438
-50.7248 15.5865 616.789
-50.4562 15.5829 616.659
-50.7501 15.864 617.115
-51.3308 16.6947 617.944
-51.0575 16.4196 617.745
-50.7755 16.1419 617.441
-50.4855 15.8618 617.036
-52.1459 17.5189 618.471
-53.468 18.0699 618.856
-53.2087 18.0695 618.846
-52.954 18.0708 618.891
-52.7014 18.0728 618.959
-52.4471 18.0742 619.01
-52.1679 17.7966 618.749
-51.8935 17.5208 618.544
-51.8737 17.2439 618.29
-51.601 16.9689 618.103
-50.3455 14.4729 615.236
-50.0586 14.1952 614.857
-50.0476 14.4608 614.739
-50.0582 14.7327 614.887
-50.3671 14.7481 615.518
-50.3931 15.025 615.853
-51.6225 17.2462 618.378
-51.3497 16.9711 618.188
-51.0785 16.6965 618.017
-50.8007 16.42 617.764
-50.4255 15.3041 616.267
-50.1412 15.2957 615.942
-50.1783 15.5765 616.416
-50.2137 15.8572 616.869
-49.9293 15.8487 616.544
-50.5113 16.1398 617.368
-50.2418 16.136 617.232
-51.0989 16.9735 618.282
-50.8211 16.6968 618.03
-50.5368 16.418 617.698
-49.969 16.1311 617.053
-51.9157 17.7988 618.826
-53.4865 18.3466 619.088
-53.7414 18.3453 619.046
-53.2334 18.3484 619.15
-52.9826 18.3511 619.241
-52.7288 18.3528 619.299
-52.1931 18.0758 619.065
-52.473 18.3538 619.333
-52.2177 18.355 619.375
-51.9387 18.0773 619.117
-51.3905 17.5255 618.714
-51.3712 17.2485 618.464
-50.0982 15.0135 615.396
-51.1193 17.2507 618.546
-50.8445 16.9748 618.333
-50.5611 16.6961 618.013
-50.2713 16.4155 617.611
-49.6828 16.1218 616.705
-50.0011 16.4115 617.467
-49.7259 16.4058 617.259
-50.8655 17.2523 618.606
-50.2986 16.6947 617.965
-51.4126 17.8036 618.998
-53.5114 18.6257 619.392
-53.7688 18.6253 619.379
-54.0186 18.6222 619.279
-54.2428 18.3402 618.872
-54.22 18.0624 618.595
-53.0081 18.6306 619.557
-52.7568 18.6333 619.644
-51.9658 18.3575 619.458
-52.5036 18.6353 619.712
-52.2466 18.636 619.734
-51.7145 18.3602 619.55
-51.4359 18.0824 619.296
-51.1406 17.5284 618.821
-51.1621 17.8065 619.099
-50.889 17.5308 618.91
-50.3242 16.9735 618.298
-50.0318 16.6918 617.864
-49.7581 16.6865 617.676
-49.4818 16.6804 617.455
-50.3476 17.2519 618.602
-50.3709 17.5306 618.907
-50.0566 16.9704 618.188
-49.7863 16.9663 618.044
-50.9093 17.8086 619.174
-51.1849 18.0852 619.393
-53.5389 18.906 619.728
-53.284 18.9074 619.772
-53.798 18.906 619.731
-54.0616 18.9077 619.788
-54.489 18.3361 618.735
-54.4645 18.0579 618.441
-53.0308 18.9094 619.839
-52.7775 18.9115 619.904
-51.9914 18.6374 619.78
-51.7379 18.6394 619.847
-51.463 18.3628 619.639
-52.2673 18.9144 619.997
-52.012 18.9159 620.043
-51.4857 18.642 619.931
-51.2101 18.3651 619.716
-50.931 18.087 619.455
-50.6535 17.8096 619.214
-50.0823 17.2496 618.523
-49.8126 17.2458 618.389
-49.5167 16.9625 617.909
-49.2689 17.2365 618.065
-50.1077 17.529 618.855
-49.8401 17.526 618.749
-50.3964 17.8103 619.237
-50.1349 17.8094 619.209
-49.8688 17.8069 619.123
-49.5424 17.2417 618.248
-50.6753 18.0882 619.498
-50.9538 18.3661 619.751
-53.5673 19.1869 620.073
-53.305 19.1858 620.034
-53.8412 19.1922 620.246
-52.7927 19.1879 620.1
-52.5377 19.1895 620.148
-51.757 18.9174 620.093
-51.5011 18.9187 620.133
-51.2314 18.6438 619.991
-52.2822 19.1909 620.191
-52.026 19.192 620.227
-51.7688 19.1929 620.252
-51.2463 18.9204 620.189
-50.9758 18.6452 620.035
-50.6972 18.3671 619.783
-50.4177 18.0888 619.518
-49.5686 17.5215 618.594
-49.298 17.5173 618.448
-49.046 17.7903 618.555
-49.5965 17.8021 618.959
-49.3249 17.7975 618.803
-50.1583 18.0887 619.516
-49.8947 18.0871 619.463
-49.6271 18.084 619.359
-49.3533 18.0787 619.179
-50.4396 18.3677 619.804
-50.7179 18.6458 620.055
-53.3279 19.465 620.317
-53.5996 19.4695 620.464
-52.809 19.4649 620.308
-52.5524 19.466 620.339
-52.2985 19.468 620.402
-51.2626 19.1977 620.404
-51.7807 19.4686 620.413
-51.5278 19.4711 620.49
-51.0073 19.1994 620.455
-50.7349 18.9233 620.28
-50.4572 18.6453 620.039
-50.1791 18.3673 619.791
-48.7918 18.0628 618.635
-49.0758 18.072 618.949
-49.9179 18.3666 619.768
-49.653 18.3646 619.7
-49.3835 18.3609 619.575
-49.1092 18.3553 619.389
-48.8324 18.3488 619.168
-50.1979 18.6454 620.04
-50.4755 18.9234 620.281
-53.382 20.0274 620.98
-52.5739 19.7452 620.61
-52.3136 19.7449 620.598
-51.2773 19.4746 620.598
-51.0234 19.4768 620.667
-50.7486 19.1998 620.465
-51.7989 19.7467 620.648
-51.5457 19.7493 620.724
-50.7688 19.4789 620.73
-50.4914 19.2007 620.495
-50.217 18.9238 620.295
-49.9393 18.6458 620.053
-48.5855 18.6246 619.346
-49.6776 18.645 620.026
-49.41 18.642 619.926
-49.1399 18.638 619.795
-48.8673 18.6331 619.63
-48.3322 18.8982 619.445
-49.9582 18.9242 620.305
-50.2352 19.2021 620.537
-53.4143 20.311 621.373
-53.7111 20.0533 621.789
-53.4386 20.5919 621.673
-53.7329 20.3332 622.057
-51.0421 19.7556 620.914
-50.7875 19.7577 620.977
-50.5107 19.4796 620.75
-51.5671 20.029 620.999
-51.3128 20.0313 621.064
-50.5313 19.7592 621.021
-50.253 19.4805 620.775
-49.9779 19.2031 620.568
-49.6969 18.9236 620.285
-48.6209 18.9095 619.817
-48.8963 18.9155 620.016
-48.3719 19.1851 619.972
-49.4351 18.9229 620.26
-49.1687 18.9204 620.176
-48.6493 19.192 620.198
-48.1244 19.4616 620.151
-49.7182 19.2032 620.569
-49.9947 19.4812 620.795
-53.7352 20.6059 622.101
-53.7299 20.8757 622.056
-53.722 21.1444 621.982
-54.0018 19.793 622.13
-54.0088 20.8829 622.277
-54.0269 20.0741 622.436
-54.0281 20.3464 622.466
-53.9947 21.1492 622.131
-54.0214 20.6158 622.406
-51.0605 20.0343 621.155
-50.8068 20.0369 621.23
-50.551 20.0387 621.281
-50.2732 19.76 621.043
-51.5896 20.3094 621.287
-51.338 20.3128 621.386
-51.0781 20.313 621.387
-50.2934 20.0398 621.31
-50.0157 19.7611 621.073
-49.738 19.4825 620.834
-49.4571 19.2028 620.553
-48.9226 19.1972 620.367
-48.4013 19.4684 620.369
-48.6764 19.4743 620.561
-49.1922 19.201 620.491
-48.159 19.7474 620.616
-48.4319 19.7525 620.779
-47.9122 20.0249 620.809
-49.4797 19.4833 620.856
-49.7582 19.7622 621.105
-53.9905 21.4194 622.101
-54.2692 21.1548 622.302
-54.2597 21.4229 622.21
-54.308 19.8098 622.663
-54.3159 20.0847 622.771
-54.3119 20.3553 622.741
-54.2836 20.8885 622.45
-54.2982 20.6221 622.601
-50.8232 20.3152 621.449
-50.5687 20.3176 621.516
-50.3138 20.3199 621.58
-50.0351 20.0407 621.333
-51.0981 20.5929 621.648
-50.841 20.5943 621.684
-50.0564 20.3212 621.616
-49.7779 20.042 621.369
-49.4998 19.763 621.126
-49.2155 19.4817 620.803
-48.9485 19.479 620.714
-48.7061 19.7581 620.959
-48.1899 20.032 621.033
-48.4606 20.0361 621.166
-47.6547 20.2981 620.864
-48.9742 19.7612 621.06
-47.9422 20.3094 621.215
-48.2132 20.3137 621.351
-47.3909 20.5688 620.837
-47.6904 20.5855 621.348
-49.2373 19.7622 621.096
-49.5194 20.0428 621.39
-54.2571 21.6937 622.196
-54.5311 21.4273 622.343
-54.5293 21.6984 622.34
-54.5431 21.16 622.463
-54.5597 20.8945 622.637
-54.8005 21.4308 622.454
-54.5961 19.82 622.986
-54.5923 20.0907 622.96
-54.5848 20.3599 622.89
-54.864 20.0948 623.092
-54.5735 20.6278 622.778
-50.587 20.5969 621.759
-50.3338 20.6 621.846
-50.0769 20.6016 621.888
-49.797 20.3217 621.626
-50.6071 20.8773 622.024
-49.819 20.6028 621.919
-49.5394 20.323 621.66
-49.2602 20.0434 621.404
-48.7303 20.0399 621.286
-48.9982 20.0428 621.382
-48.4864 20.3189 621.516
-47.135 20.843 620.917
-47.9673 20.5923 621.56
-48.2383 20.5966 621.694
-48.7559 20.3225 621.631
-47.4356 20.8604 621.442
-47.181 21.1356 621.542
-47.7189 20.8701 621.738
-47.9929 20.8757 621.91
-49.282 20.3244 621.697
-54.7952 21.7006 622.41
-54.8135 21.1639 622.585
-55.0649 21.4324 622.507
-55.0542 21.7 622.403
-55.0556 21.9724 622.435
-54.8287 20.8978 622.742
-54.8439 20.6315 622.897
-55.0957 20.9003 622.823
-55.0799 21.1662 622.66
-55.3276 21.4333 622.542
-54.8785 19.8279 623.241
-54.8537 20.3631 622.992
-55.1318 20.0975 623.181
-55.118 20.3646 623.042
-55.1496 19.8318 623.367
-55.3943 20.0983 623.211
-55.1068 20.6325 622.932
-50.3546 20.8807 622.121
-50.0989 20.8829 622.179
-49.8409 20.8842 622.211
-49.5607 20.6039 621.946
-50.6291 21.1586 622.313
-50.8823 21.1554 622.224
-49.3023 20.605 621.972
-49.0203 20.324 621.681
-48.5107 20.6014 621.846
-48.7778 20.6039 621.929
-46.9263 21.411 621.642
-48.2618 20.879 622.017
-49.0411 20.6049 621.964
-47.4696 21.1478 621.907
-47.2131 21.4225 621.984
-46.6656 21.6838 621.663
-47.7445 21.1538 622.091
-48.0171 21.1587 622.244
-48.5322 20.8829 622.14
-55.3154 21.7004 622.421
-55.3437 21.1676 622.707
-55.5944 21.4358 622.622
-55.3114 21.9706 622.393
-55.5798 21.7019 622.475
-55.3572 20.9007 622.842
-55.3678 20.6327 622.945
-55.6159 20.9001 622.831
-55.6056 21.1682 622.732
-55.3791 20.3649 623.056
-55.6618 20.1009 623.295
-55.6416 20.3657 623.086
-55.9289 20.1034 623.376
-55.9052 20.3669 623.128
-55.6275 20.6325 622.944
-50.1205 21.1643 622.466
-49.8636 21.1661 622.513
-49.603 21.1664 622.514
-49.322 20.8856 622.238
-50.6462 21.4381 622.541
-50.8944 21.4327 622.391
-50.3966 21.4431 622.676
-50.1412 21.4456 622.741
-49.0626 20.8863 622.255
-48.8007 20.886 622.24
-46.9553 21.6968 622.046
-46.6947 21.9699 622.071
-46.413 21.9605 621.795
-47.4983 21.4332 622.302
-48.2882 21.1629 622.375
-47.2439 21.7092 622.409
-47.7712 21.4383 622.458
-46.4362 22.2442 622.125
-46.1606 22.2375 621.93
-46.9835 21.9826 622.438
-48.0424 21.4425 622.59
-48.5578 21.1665 622.487
-48.8236 21.1684 622.55
-55.8445 21.7037 622.533
-55.8693 21.1694 622.776
-55.8589 21.4374 622.677
-56.1219 21.4384 622.715
-55.8331 21.971 622.423
-55.833 22.2427 622.437
-56.1097 21.7056 622.596
-55.877 20.9004 622.847
-55.8873 20.6324 622.946
-56.1689 20.3682 623.172
-56.1502 20.6333 622.981
-56.4164 20.6355 623.053
-49.8842 21.4475 622.788
-49.6241 21.448 622.797
-49.3434 21.1671 622.527
-49.3653 21.4492 622.822
-49.0843 21.1681 622.549
-50.4153 21.7236 622.925
-50.1604 21.7264 622.998
-49.9021 21.7278 623.029
-46.7202 22.2547 622.43
-46.4504 22.5238 622.336
-46.1766 22.518 622.166
-45.904 22.5128 622.011
-47.5233 21.7173 622.649
-48.3154 21.4476 622.745
-47.2728 21.9953 622.809
-47.7972 21.7228 622.816
-46.1842 22.7945 622.288
-46.4606 22.8016 622.492
-45.9135 22.7903 622.16
-47.0111 22.2684 622.823
-46.7391 22.5366 622.701
-48.0695 21.7275 622.961
-48.5822 21.4499 622.819
-48.8457 21.4507 622.85
-49.1068 21.4505 622.852
-56.0969 21.9724 622.47
-56.3719 21.7063 622.626
-56.1321 21.1704 622.813
-56.1402 20.9016 622.886
-56.3932 21.1708 622.829
-56.3839 21.4391 622.743
-56.6441 21.4391 622.751
-56.0912 22.2419 622.423
-56.3591 21.9731 622.5
-56.1048 22.5191 622.59
-56.3566 22.2439 622.489
-56.6337 21.7069 622.652
-56.4019 20.9021 622.909
-56.6613 20.9018 622.908
-56.6523 21.1703 622.824
-49.6437 21.7292 623.061
-49.3846 21.7303 623.084
-49.1253 21.7314 623.106
-50.1762 22.006 623.212
-49.9196 22.0082 623.266
-49.6616 22.0099 623.304
-46.7498 22.8148 622.863
-46.1878 23.0692 622.357
-46.4674 23.0778 622.602
-45.644 22.7865 622.048
-45.9203 23.0665 622.273
-45.6543 23.0645 622.209
-47.5488 22.0019 623.002
-48.339 21.731 623.068
-48.6051 21.7329 623.132
-47.2985 22.2804 623.168
-47.8235 22.0077 623.177
-47.5742 22.2867 623.355
-46.1909 23.3436 622.418
-46.4758 23.355 622.735
-45.9232 23.3408 622.332
-45.3857 23.0613 622.109
-47.0344 22.5525 623.151
-48.0955 22.0123 623.316
-48.3611 22.0139 623.372
-48.8666 21.7328 623.137
-56.6249 21.9753 622.571
-56.8939 21.7069 622.661
-56.9001 21.4375 622.713
-56.3652 22.5191 622.6
-56.6193 22.2449 622.525
-56.622 22.5177 622.571
-56.8874 21.9762 622.606
-49.1439 22.0125 623.36
-48.8846 22.0137 623.384
-50.1979 22.2884 623.5
-49.9398 22.2901 623.536
-49.6808 22.2914 623.564
-49.4211 22.2924 623.582
-47.0547 22.8355 623.44
-46.2002 23.6213 622.563
-45.6592 23.3399 622.295
-45.3961 23.3395 622.271
-45.6615 23.614 622.347
-48.624 22.0143 623.393
-47.3221 22.5647 623.498
-47.8462 22.2913 623.493
-47.5975 22.5709 623.68
-48.1173 22.2954 623.618
-47.8692 22.5753 623.812
-45.9261 23.6152 622.391
-45.1314 23.3382 622.227
-45.4009 23.6149 622.357
-48.3812 22.2962 623.649
-48.6425 22.2958 623.648
-56.8821 22.2459 622.563
-49.1629 22.2941 623.62
-48.9043 22.2957 623.655
-49.9666 22.5751 623.889
-49.7039 22.5748 623.871
-49.4438 22.5758 623.886
-49.184 22.5769 623.906
-47.0775 23.12 623.762
-47.3451 22.849 623.82
-47.6224 22.8562 624.026
-45.9313 23.8909 622.482
-45.6636 23.8881 622.396
-45.1382 23.6148 622.341
-45.4036 23.8893 622.416
-48.1366 22.5777 623.887
-47.8921 22.8595 624.129
-48.4013 22.5788 623.928
-48.1562 22.8603 624.161
-44.8724 23.613 622.281
-45.1412 23.8893 622.402
-48.6625 22.5782 623.924
-48.9226 22.5772 623.906
-49.9901 22.859 624.201
-49.726 22.8581 624.167
-50.2547 22.8601 624.242
-49.4659 22.8591 624.184
-49.2052 22.8599 624.194
-48.9424 22.8597 624.177
-47.1024 23.4058 624.112
-47.372 23.1355 624.194
-47.6438 23.14 624.324
-47.9121 23.1427 624.409
-45.6632 24.1608 622.411
-45.4017 24.1613 622.409
-44.8777 23.8888 622.375
-45.1417 24.1626 622.43
-48.4198 22.8608 624.185
-48.1762 23.1433 624.439
-48.6808 22.8601 624.178
-48.4381 23.143 624.44
-44.6092 23.8856 622.278
-44.88 24.1631 622.427
-44.6144 24.1614 622.371
-50.0016 23.1375 624.363
-49.7403 23.1381 624.365
-50.2652 23.1381 624.391
-50.5202 22.8616 624.294
-49.4806 23.1393 624.388
-50.5284 23.1386 624.414
-50.2689 23.4132 624.455
-49.2201 23.1403 624.402
-48.9598 23.1413 624.418
-48.6999 23.1426 624.441
-47.3962 23.4211 624.533
-47.139 23.6977 624.616
-47.6676 23.4252 624.655
-47.9324 23.4262 624.693
-48.1954 23.4263 624.707
-45.399 24.4329 622.393
-45.1403 24.4349 622.431
-45.4024 24.7077 622.459
-44.8788 24.4355 622.432
-48.4559 23.4251 624.689
-48.7155 23.4236 624.66
-44.3436 24.157 622.243
-44.6173 24.4361 622.432
-44.3498 24.4335 622.35
-44.6165 24.7088 622.442
-50.0083 23.414 624.465
-49.7482 23.4151 624.483
-50.5332 23.4141 624.491
-50.7895 23.138 624.411
-51.0497 23.1371 624.398
-49.2302 23.4185 624.548
-50.793 23.4129 624.471
-50.2817 23.6926 624.632
-50.5383 23.6898 624.572
-50.0219 23.6938 624.654
-48.9739 23.4215 624.617
-47.4225 23.7079 624.899
-47.6895 23.7099 624.962
-47.1733 23.9889 625.09
-47.4443 23.9928 625.205
-47.9511 23.7091 624.955
-48.214 23.7091 624.967
-48.4747 23.708 624.951
-45.1383 24.7069 622.423
-44.8765 24.7073 622.419
-45.1359 24.9787 622.411
-44.8742 24.9792 622.408
-48.7268 23.7027 624.824
-44.0782 24.4285 622.21
-44.3536 24.7087 622.424
-44.0871 24.7066 622.356
-44.3526 24.9813 622.431
-44.6133 24.9802 622.418
-50.7963 23.6877 624.53
-51.0515 23.4112 624.438
-51.3124 23.4105 624.433
-51.5691 23.1349 624.361
-51.0588 23.6878 624.544
-51.5726 23.4096 624.421
-47.7101 23.9941 625.252
-47.9717 23.9933 625.244
-46.9307 24.2737 625.372
-47.2029 24.2781 625.501
-47.4681 24.279 625.538
-47.7323 24.2794 625.561
-48.2337 23.9927 625.241
-45.1343 25.2508 622.408
-44.8712 25.2506 622.387
-45.1441 25.5295 622.565
-44.6102 25.2516 622.395
-48.7546 24.264 625.218
-43.8055 24.4229 622.052
-43.8163 24.702 622.227
-44.0897 24.9812 622.413
-43.5483 24.699 622.137
-43.8229 24.979 622.342
-44.3499 25.253 622.414
-44.0878 25.2533 622.407
-51.3196 23.6871 624.539
-51.5738 23.6834 624.453
-51.8336 23.4091 624.42
-51.8257 23.1325 624.307
-52.0829 23.1303 624.26
-52.0919 23.4074 624.386
-51.5726 23.9561 624.457
-51.8375 23.684 624.484
-47.9921 24.2776 625.529
-48.2525 24.2761 625.504
-46.9625 24.5645 625.816
-47.2275 24.5652 625.848
-47.4896 24.5643 625.841
-47.7516 24.5635 625.834
-48.0132 24.5625 625.823
-48.5048 24.2706 625.376
-44.8689 25.5224 622.376
-44.6063 25.5225 622.361
-44.8793 25.8015 622.541
-44.6089 25.7972 622.419
-44.3463 25.5241 622.384
-48.7849 24.5531 625.625
-48.5256 24.5551 625.664
-48.2711 24.5597 625.764
-43.5566 24.977 622.277
-43.8257 25.2538 622.403
-43.287 24.9731 622.165
-43.5591 25.2516 622.334
-43.291 25.2486 622.243
-44.0848 25.5248 622.387
-43.8242 25.5262 622.403
-51.853 23.9644 624.689
-52.0961 23.6824 624.454
-52.3528 23.4069 624.385
-52.3411 23.1287 624.228
-52.6011 23.1278 624.217
-52.3576 23.6822 624.46
-52.1166 23.965 624.717
-46.9842 24.8503 626.124
-46.7195 24.8499 626.099
-47.2464 24.8495 626.118
-47.5106 24.8496 626.137
-47.7724 24.8486 626.126
-48.0321 24.8465 626.088
-48.2907 24.844 626.038
-44.3432 25.7954 622.361
-44.6219 26.0779 622.62
-44.9005 26.087 622.855
-44.3489 26.072 622.462
-44.0801 25.7953 622.34
-48.8029 24.8363 625.875
-48.5473 24.8403 625.962
-43.5599 25.5253 622.366
-43.0207 25.2442 622.12
-43.2944 25.5238 622.313
-43.0251 25.52 622.204
-43.2933 25.7964 622.318
-43.8169 25.7951 622.32
-43.5556 25.7961 622.326
-52.3692 23.9606 624.615
-52.6153 23.4072 624.403
-52.6214 23.6829 624.492
-52.8788 23.4078 624.433
-53.1399 23.4075 624.435
-52.6249 23.9576 624.551
-47.0052 25.1361 626.424
-46.7432 25.1372 626.437
-47.2667 25.1347 626.406
-46.4611 25.1274 626.179
-47.5291 25.1339 626.401
-47.7915 25.1331 626.396
-48.0545 25.1326 626.4
-48.3155 25.1312 626.378
-44.0801 26.0685 622.362
-44.3607 26.3523 622.648
-44.6407 26.3623 622.903
-44.3844 26.6398 623.002
-44.0856 26.345 622.46
-43.8126 26.0658 622.28
-42.7535 25.5148 622.062
-43.0274 25.7946 622.259
-42.76 25.792 622.179
-43.0231 26.0654 622.218
-43.2856 26.0651 622.229
-43.5492 26.0655 622.255
-52.8886 23.9584 624.584
-52.881 23.6819 624.477
-53.1376 23.6795 624.426
-53.3955 23.4047 624.374
-53.3935 23.6768 624.368
-53.6514 23.4022 624.318
-53.1412 23.9541 624.485
-53.6497 23.6743 624.315
-47.0236 25.4207 626.689
-47.2853 25.4194 626.673
-46.7627 25.4225 626.718
-46.4981 25.4223 626.698
-47.5485 25.4189 626.676
-46.2266 25.6931 626.604
-47.8137 25.4195 626.706
-48.0768 25.419 626.71
-48.3353 25.416 626.654
-48.5866 25.4095 626.508
-43.812 26.3386 622.291
-44.097 26.6252 622.642
-44.6799 26.6591 623.471
-44.1247 26.9155 623.054
-44.4259 26.9385 623.605
-43.8354 26.8995 622.666
-43.817 26.6149 622.383
-43.5455 26.3365 622.224
-42.4886 25.7869 622.039
-42.7577 26.0639 622.168
-42.4926 26.0626 622.12
-42.7549 26.3355 622.148
-43.0185 26.3358 622.174
-43.2808 26.3354 622.181
-53.3986 23.9521 624.445
-53.9062 23.3991 624.25
-53.9113 23.6742 624.326
-53.6607 23.9521 624.461
-54.1599 23.3957 624.17
-54.1684 23.6722 624.285
-53.9132 23.9479 624.364
-47.0432 25.7062 626.97
-47.3064 25.7055 626.971
-46.7827 25.7083 627.006
-47.5703 25.7053 626.982
-46.5188 25.7086 626.997
-47.8329 25.7045 626.977
-46.2567 25.9849 627.032
-45.9773 26.2515 626.833
-46.5368 25.9936 627.259
-48.0956 25.7037 626.974
-48.3571 25.7023 626.956
-48.6188 25.701 626.942
-43.544 26.6088 622.223
-44.1703 27.2171 623.719
-43.8671 27.1925 623.137
-43.5733 27.1736 622.685
-43.9169 27.4974 623.866
-44.486 27.249 624.469
-43.6164 27.4742 623.321
-43.5523 26.8872 622.363
-43.2788 26.6074 622.173
-42.2216 26.0577 621.986
-42.4911 26.335 622.119
-42.2227 26.3317 622.024
-42.4856 26.6049 622.061
-42.7506 26.6061 622.107
-43.0138 26.6062 622.127
-54.4102 23.3908 624.052
-54.4226 23.6689 624.211
-54.1716 23.9464 624.338
-54.6654 23.3881 623.992
-54.6774 23.666 624.146
-54.4245 23.9426 624.25
-47.0641 25.9927 627.269
-47.326 25.9912 627.25
-46.8028 25.9944 627.294
-47.5909 25.9915 627.273
-48.116 25.9895 627.259
-46.2874 26.2774 627.469
-46.558 26.2807 627.564
-46.027 26.5552 627.531
-46.8233 26.281 627.59
-48.3801 25.9894 627.274
-48.6452 25.9898 627.3
-48.9034 25.9866 627.24
-49.1535 25.9792 627.077
-43.2794 26.8811 622.203
-44.2252 27.5251 624.515
-43.6719 27.7833 624.136
-43.308 27.4458 622.657
-43.2865 27.1588 622.327
-43.3682 27.7578 623.544
-43.9685 27.804 624.619
-44.5297 27.5502 625.104
-44.2615 27.8222 625.048
-43.0574 27.7275 622.843
-43.0102 26.8772 622.096
-41.9521 26.327 621.895
-42.2207 26.6038 622.016
-41.9529 26.6008 621.929
-42.2145 26.8731 621.946
-42.4777 26.8732 621.966
-42.7441 26.8753 622.033
-54.9396 23.6663 624.166
-54.6814 23.9405 624.209
-55.2092 23.6697 624.27
-54.9465 23.942 624.261
-47.0856 26.2797 627.575
-47.3468 26.2778 627.547
-47.6097 26.2769 627.541
-47.8707 26.2749 627.511
-48.1324 26.2734 627.492
-48.3983 26.2742 627.528
-46.313 26.5673 627.835
-46.5803 26.5687 627.885
-46.843 26.5675 627.874
-46.0612 26.8505 628.018
-46.3361 26.8561 628.168
-47.1054 26.566 627.858
-48.6626 26.2741 627.544
-48.9229 26.2719 627.509
-49.1816 26.2689 627.454
-49.443 26.2674 627.436
-49.7089 26.2683 627.474
-43.0101 27.1505 622.117
-43.7175 28.0867 624.809
-44.0053 28.1018 625.164
-43.4266 28.0695 624.406
-43.125 28.0451 623.843
-43.0207 27.4305 622.291
-42.7594 27.7051 622.321
-42.8058 28.0089 623.018
-42.8655 28.3221 623.908
-43.7577 28.3872 625.405
-43.4717 28.3732 625.076
-42.5356 28.2783 622.923
-42.4972 27.9793 622.339
-42.7401 27.146 621.997
-41.6783 26.3202 621.718
-41.6856 26.5981 621.849
-41.9493 26.8718 621.897
-41.6844 26.8707 621.853
-42.2067 27.1414 621.853
-42.4714 27.1425 621.896
-41.9414 27.14 621.803
-55.2135 23.9443 624.336
-55.4695 23.6692 624.269
-54.9592 24.2203 624.422
-55.4756 23.9446 624.355
-55.7217 23.6653 624.178
-55.2249 24.2221 624.481
-55.7343 23.9433 624.336
-47.365 26.5631 627.807
-47.885 26.5579 627.719
-48.1458 26.5558 627.687
-48.4088 26.555 627.684
-48.6704 26.5534 627.664
-46.6015 26.8563 628.191
-46.8618 26.8536 628.145
-47.1212 26.8504 628.089
-45.7987 27.1276 628.056
-46.088 27.1417 628.403
-46.355 27.1428 628.445
-46.6173 27.1411 628.425
-47.3801 26.847 628.027
-48.9314 26.5515 627.637
-49.1947 26.5509 627.641
-49.4565 26.5495 627.625
-49.7171 26.5476 627.596
-49.9746 26.544 627.529
-50.2348 26.5418 627.496
-49.7249 26.8267 627.714
-49.982 26.8228 627.641
-42.7418 27.4204 622.044
-43.181 28.3559 624.674
-43.5017 28.6676 625.527
-43.7876 28.6815 625.853
-42.9187 28.6317 624.705
-42.4778 27.6931 622.033
-42.4701 27.4149 621.899
-42.213 27.9655 622.012
-42.2483 28.5361 622.576
-43.2226 28.658 625.298
-43.5239 28.9571 625.868
-43.249 28.9504 625.702
-42.9612 28.9349 625.344
-42.2279 28.2488 622.253
-41.9558 28.5164 622.126
-42.2042 27.6863 621.86
-41.4045 26.3134 621.539
-41.4147 26.5932 621.715
-41.4168 26.8678 621.768
-41.1409 26.5862 621.535
-41.6778 27.1397 621.776
-41.4126 27.1383 621.727
-42.2014 27.4113 621.798
-41.9359 27.4097 621.743
-41.6703 27.4081 621.687
-55.4863 24.222 624.492
-55.9751 23.6619 624.102
-55.9882 23.9401 624.265
-54.9825 24.5036 624.703
-54.7216 24.504 624.701
-55.2423 24.5026 624.694
-55.7418 24.2193 624.436
-55.6864 23.3779 623.767
-56.2285 23.6586 624.028
-55.9441 23.3765 623.741
-55.5007 24.5011 624.67
-48.4137 26.8328 627.767
-48.6769 26.832 627.767
-48.9413 26.8319 627.783
-46.8804 27.1399 628.415
-47.1412 27.1374 628.375
-45.8345 27.4246 628.567
-46.1072 27.4289 628.685
-46.3726 27.4289 628.704
-46.6354 27.4274 628.688
-46.8991 27.4264 628.685
-49.205 26.8315 627.791
-49.4673 26.8303 627.781
-50.2426 26.8208 627.612
-50.4933 26.5389 627.445
-50.501 26.8178 627.559
-50.7476 26.5338 627.34
-50.7593 26.8146 627.503
-49.7374 27.1084 627.889
-49.994 27.1042 627.81
-49.4779 27.1112 627.934
-42.9873 29.2274 625.746
-43.2701 29.2396 626.028
-43.5448 29.2462 626.19
-42.6845 29.2015 625.169
-41.9375 27.9573 621.811
-41.9452 28.2358 621.946
-41.9355 27.6827 621.758
-41.6901 28.7883 622.093
-41.6757 28.5049 621.855
-43.0058 29.5151 626.037
-42.7148 29.4971 625.634
-41.671 28.2284 621.764
-41.402 28.7712 621.702
-41.6673 27.6793 621.664
-41.1473 26.8637 621.655
-40.8568 26.5725 621.197
-41.1466 27.1365 621.666
-40.8723 26.8559 621.456
-40.8771 27.1323 621.552
-41.4073 27.4082 621.67
-41.1423 27.4069 621.623
-41.4025 27.6782 621.62
-56.1888 23.3696 623.571
-55.0046 24.7865 624.971
-55.2634 24.785 624.95
-54.7489 24.7894 625.029
-48.4289 27.1165 627.983
-48.6918 27.1154 627.978
-48.9554 27.1149 627.983
-49.2176 27.1135 627.971
-47.1597 27.4237 628.642
-45.5836 27.7092 628.769
-45.861 27.7164 628.951
-46.1264 27.7163 628.968
-46.3901 27.7152 628.961
-46.6527 27.7135 628.942
-46.9149 27.7115 628.917
-50.5118 27.0983 627.71
-50.7292 26.2496 627.095
-51.0026 26.5291 627.248
-51.0155 26.8105 627.425
-50.7702 27.0952 627.657
-51.261 26.5263 627.198
-50.975 26.2403 626.89
-51.0177 27.0864 627.47
-51.2766 26.809 627.407
-49.7511 27.3911 628.081
-50.0092 27.3875 628.019
-49.4915 27.3938 628.125
-50.2671 27.3839 627.955
-49.232 27.3967 628.174
-42.7355 29.7865 625.959
-43.2896 29.528 626.332
-43.0294 29.8066 626.402
-42.4052 29.4661 624.954
-42.4494 29.7718 625.627
-41.6673 27.9526 621.686
-41.3974 27.9481 621.566
-41.3962 28.4938 621.592
-41.1503 29.3262 621.901
-41.3962 28.2205 621.569
-41.1196 28.7578 621.392
-41.1174 28.483 621.337
-40.8567 29.0314 621.399
-41.1372 27.6768 621.569
-40.5911 26.8439 621.161
-40.6018 27.1242 621.347
-40.3223 27.1132 621.077
-40.8762 27.405 621.56
-40.6055 27.3999 621.426
-40.8726 27.6759 621.528
-41.1305 27.9455 621.489
-48.4502 27.4038 628.279
-48.7116 27.4018 628.253
-48.9733 27.4001 628.232
-47.1929 27.9948 629.123
-45.3273 27.991 628.899
-45.6149 28.0044 629.221
-45.8817 28.0051 629.255
-46.1442 28.0031 629.23
-46.4071 28.0014 629.212
-46.6719 28.0009 629.221
-46.9324 27.9978 629.171
-50.5257 27.3808 627.901
-50.7829 27.3769 627.832
-51.7157 25.9407 626.314
-49.7663 27.6747 628.292
-50.0278 27.6729 628.271
-49.5053 27.6768 628.32
-50.2866 27.6697 628.218
-49.2471 27.6804 628.384
-50.5472 27.6675 628.187
-48.9899 27.6848 628.464
-43.3259 29.8282 626.879
-41.1246 28.2148 621.423
-40.8726 29.3161 621.664
-40.9085 29.6155 622.232
-40.6304 29.605 621.989
-40.6009 29.3101 621.515
-40.3516 29.5939 621.734
-40.8453 28.75 621.202
-40.847 28.478 621.205
-40.8553 28.2106 621.31
-40.5764 28.7459 621.094
-40.5816 29.0229 621.196
-40.3224 29.2991 621.261
-40.8639 27.9432 621.417
-40.3322 27.3931 621.252
-40.6055 27.6732 621.449
-40.3357 27.6687 621.329
-40.0528 27.382 620.981
-40.0359 27.0974 620.696
-40.0622 27.6616 621.15
-40.6007 27.9433 621.399
-48.7317 27.6886 628.531
-48.2131 27.6952 628.642
-47.209 28.2804 629.358
-47.473 28.2795 629.358
-46.9496 28.2842 629.422
-47.4868 28.5638 629.56
-45.3633 28.2895 629.42
-45.6356 28.2934 629.528
-45.8995 28.2922 629.52
-46.1619 28.29 629.492
-46.4231 28.2873 629.45
-51.9752 25.9388 626.285
-51.7038 25.6607 626.151
-51.9562 25.6554 626.038
-49.7851 27.9605 628.549
-50.0433 27.9568 628.484
-49.5249 27.9631 628.588
-50.3066 27.956 628.486
-49.2636 27.9652 628.615
-49.0067 27.9698 628.697
-48.7494 27.9742 628.778
-40.6636 29.903 622.52
-41.2017 29.6367 622.7
-40.3756 29.8852 622.127
-40.9536 29.9221 622.94
-40.0824 29.8632 621.648
-40.1151 30.1613 622.177
-40.3094 29.0164 621.038
-40.0588 29.5723 621.259
-39.7983 29.8478 621.304
-40.5808 28.4759 621.14
-40.3117 28.7449 621.05
-40.5909 28.2097 621.271
-40.3175 28.4758 621.116
-40.3262 28.2087 621.228
-40.045 28.7424 620.976
-40.041 29.2859 620.958
-40.0388 29.0111 620.903
-40.3344 27.9411 621.332
-40.0654 27.9371 621.222
-39.7812 27.6493 620.853
-39.7705 27.3688 620.663
-39.7895 27.9282 621.005
-39.4986 27.6356 620.526
-40.0606 28.207 621.171
-48.4871 27.9758 628.795
-47.9636 27.7041 628.827
-48.2303 27.9807 628.885
-47.9783 27.9885 629.04
-48.5057 28.2624 629.057
-47.2304 28.5694 629.663
-46.9689 28.572 629.7
-46.7014 28.5711 629.659
-48.2624 28.5512 629.343
-47.7869 29.137 630.073
-45.3854 28.5797 629.747
-45.6536 28.581 629.796
-45.9154 28.5784 629.758
-45.1305 28.8634 629.905
-46.176 28.575 629.705
-46.437 28.572 629.658
-49.802 28.2455 628.781
-49.543 28.2488 628.836
-49.2829 28.2517 628.879
-49.0254 28.2561 628.956
-48.7677 28.2605 629.034
-40.4075 30.1827 622.641
-40.6941 30.1995 623.011
-40.1371 30.4518 622.541
-40.9951 30.2267 623.594
-39.8275 30.1434 621.784
-39.5491 30.1322 621.531
-39.8514 30.4353 622.18
-39.5731 30.4242 621.93
-39.8681 30.722 622.465
-39.7717 29.0083 620.82
-39.7697 29.28 620.812
-39.5243 29.8399 621.117
-39.2636 29.842 621.138
-39.2561 29.5629 620.996
-40.052 28.4742 621.061
-39.7791 28.7404 620.912
-39.7852 28.4716 620.985
-39.5084 29.2815 620.821
-39.5051 29.0058 620.746
-39.7897 28.2016 621.032
-39.5089 27.9159 620.712
-39.5098 28.1897 620.75
-39.2153 27.8942 620.21
-39.2101 27.6176 620.104
-39.2125 28.1652 620.189
-48.5223 28.5479 629.29
-49.0406 28.5406 629.172
-46.726 28.8625 630.01
-46.4581 28.8614 629.964
-48.2785 28.8367 629.572
-48.5402 28.8344 629.542
-48.0426 29.1308 629.959
-47.816 29.4312 630.476
-48.074 29.4263 630.392
-48.3032 29.1277 629.914
-47.5578 29.4362 630.56
-48.3329 29.4219 630.319
-47.2966 29.4393 630.605
-48.5661 29.1259 629.898
-45.4052 28.8688 630.043
-45.6705 28.8682 630.05
-45.9321 28.8652 630.007
-46.1929 28.8619 629.956
-44.8745 29.1467 630.049
-45.1555 29.1561 630.274
-45.4261 29.1587 630.353
-45.6896 29.1569 630.334
-49.8164 28.5292 628.98
-49.5581 28.5331 629.046
-49.2995 28.5369 629.11
-40.1555 30.7399 622.849
-40.1742 31.0285 623.164
-39.8861 31.0099 622.768
-39.5917 30.7124 622.247
-40.4701 31.0527 623.675
-40.4967 31.3477 624.107
-39.2999 30.4169 621.759
-39.0028 29.8441 621.159
-39.3212 30.7073 622.121
-39.6095 31.0003 622.55
-39.5057 28.733 620.731
-39.2424 29.2794 620.756
-38.9922 29.5626 620.967
-38.7309 29.8376 621.003
-38.7406 30.1186 621.182
-38.9669 29.2702 620.539
-39.5081 28.4616 620.746
-39.2084 28.4352 620.148
-38.9152 27.8677 619.599
-38.9076 28.1349 619.502
-39.2102 28.7094 620.2
-49.0583 28.8268 629.417
-49.3184 28.8237 629.371
-46.7502 29.154 630.356
-46.4856 29.1551 630.358
-47.0128 29.1518 630.33
-46.2171 29.1536 630.306
-49.0809 29.116 629.726
-48.5911 29.4172 630.241
-47.8363 29.7203 630.763
-48.0958 29.7162 630.696
-47.5771 29.7248 630.836
-48.3574 29.7133 630.659
-48.8523 29.4144 630.202
-47.3137 29.7266 630.853
-47.0341 29.4416 630.634
-48.6187 29.7104 630.618
-47.0508 29.7289 630.879
-46.7749 29.4462 630.71
-45.9532 29.1552 630.318
-44.9079 29.4452 630.539
-45.177 29.4468 630.595
-45.4444 29.4474 630.628
-45.708 29.4455 630.609
-45.9727 29.4443 630.606
-49.577 28.8197 629.305
-39.9177 31.3089 623.285
-39.6392 31.2978 623.04
-40.1986 31.3217 623.565
-39.3673 31.2918 622.897
-40.2347 31.6245 624.148
-39.9577 31.6149 623.933
-39.6838 31.6076 623.765
-40.0006 31.9237 624.626
-40.2747 31.931 624.791
-39.7262 31.9163 624.455
-38.4622 30.107 620.92
-38.7097 29.548 620.639
-39.1002 31.2896 622.829
-38.4326 29.8106 620.419
-38.9013 28.4029 619.425
-38.622 27.8457 619.09
-38.6158 28.1137 619.014
-38.6086 28.3809 618.923
-38.6074 28.6525 618.928
-49.3385 29.1113 629.646
-46.5093 29.4466 630.699
-46.2405 29.4452 630.645
-48.8793 29.7071 630.57
-47.8463 30.0033 630.915
-47.5823 30.0048 630.925
-48.1117 30.0027 630.924
-48.377 30.0021 630.934
-47.3233 30.0095 631.002
-48.6394 29.9996 630.905
-47.0639 30.014 631.074
-46.7882 29.7313 630.909
-46.8003 30.0159 631.092
-46.5228 29.7321 630.903
-45.1944 29.7352 630.859
-45.458 29.7331 630.837
-44.941 30.0211 631.045
-44.675 30.0218 631.036
-45.7212 29.7309 630.812
-45.9855 29.7294 630.802
-46.2557 29.7317 630.873
-39.4063 31.5973 623.538
-39.1342 31.5913 623.395
-38.8272 31.2826 622.666
-38.8631 31.586 623.266
-39.4478 31.9054 624.218
-39.1711 31.8959 624.006
-39.7574 32.2165 624.968
-39.4733 32.2011 624.645
-40.0395 32.2301 625.257
-39.4928 32.4921 624.976
-39.1945 32.1899 624.403
-38.5918 31.5805 623.134
-38.3345 27.8275 618.667
-38.3316 28.0978 618.645
-38.3267 28.3666 618.59
-38.3273 28.6393 618.623
-38.0737 29.191 618.796
-38.054 28.9035 618.451
-48.6527 30.2846 631.098
-47.8531 30.2843 631.024
-47.592 30.2878 631.074
-48.1219 30.2858 631.078
-48.3873 30.2852 631.087
-46.8048 30.2958 631.173
-46.5333 30.0157 631.065
-46.5456 30.3007 631.252
-46.2642 30.0141 631.009
-44.9569 30.309 631.29
-44.6886 30.3082 631.25
-44.408 30.0217 631.013
-44.4261 30.3112 631.291
-44.7089 30.5993 631.557
-44.4446 30.6013 631.575
-38.8988 31.8897 623.862
-38.6258 31.883 623.706
-38.2858 31.2723 622.412
-38.3206 31.5751 623.002
-38.0272 31.2769 622.481
-38.356 31.879 623.602
-38.9225 32.1842 624.267
-38.6508 32.1786 624.134
-39.7849 32.5141 625.424
-39.5072 32.7793 625.228
-39.2054 32.4739 624.6
-39.2164 32.7582 624.799
-38.9318 32.4669 624.439
-40.3332 32.2528 625.723
-39.2454 33.0578 625.284
-38.6629 32.4637 624.354
-38.0567 31.5756 622.988
-38.0882 31.8764 623.528
-38.0553 28.0876 618.4
-38.0505 28.3563 618.345
-37.7807 28.0785 618.179
-38.0467 28.6257 618.308
-37.8149 29.4665 618.86
-37.784 29.17 618.329
-38.1055 29.4881 619.336
-37.7722 28.8887 618.112
-37.5127 29.4355 618.187
-37.7713 28.6158 618.074
-37.7778 28.3485 618.156
-48.4007 30.5704 631.282
-48.1309 30.5683 631.216
-47.864 30.5681 631.189
-47.6089 30.5754 631.317
-46.2747 30.2979 631.173
-44.7307 30.8918 631.887
-44.4659 30.8936 631.9
-44.4894 31.1877 632.255
-38.3807 32.1744 624.028
-38.113 32.1722 623.959
-38.2543 30.9726 621.875
-37.9919 30.9739 621.878
-37.7946 31.5777 623.005
-37.8209 31.8744 623.463
-37.8408 32.1661 623.816
-38.3938 32.4604 624.265
-38.1272 32.4591 624.215
-38.9564 33.0378 624.881
-38.9385 32.7476 624.571
-38.6698 32.7446 624.489
-38.6802 33.0286 624.681
-38.9981 33.3488 625.576
-38.7085 33.3282 625.163
-38.7309 33.6231 625.548
-38.4008 32.7414 624.402
-37.5015 28.3379 617.905
-37.4988 28.608 617.884
-37.5001 29.1534 617.956
-37.4973 28.879 617.884
-37.2245 29.4151 617.738
-37.2216 29.1408 617.666
-37.2231 28.8698 617.665
-48.1522 30.8588 631.514
-47.8809 30.8558 631.43
-47.6258 30.8633 631.56
-44.7517 31.184 632.205
-43.9452 31.1813 632.079
-43.6647 31.172 631.867
-43.9696 31.4765 632.451
-43.6918 31.4693 632.282
-44.2673 31.7759 632.924
-37.8553 32.4534 624.08
-37.5878 32.7264 624.04
-37.8671 32.7387 624.299
-38.1335 32.7397 624.344
-38.4281 33.3154 624.896
-38.41 33.0244 624.576
-38.1405 33.0208 624.483
-38.1531 33.307 624.714
-39.2924 33.3731 626.057
-38.4475 33.6077 625.235
-39.0362 33.6572 626.211
-38.7543 33.9192 625.951
-38.1702 33.5974 625.018
-37.2251 28.3272 617.65
-37.2267 28.6005 617.701
-36.9459 29.4022 617.444
-36.9486 29.1323 617.465
-36.9535 28.8641 617.522
-36.9593 28.5965 617.594
-47.6495 31.1559 631.895
-47.382 31.1555 631.863
-43.4111 31.4599 632.069
-43.7158 31.7646 632.65
-43.3653 31.1492 631.38
-43.4378 31.7572 632.479
-43.1616 31.7511 632.333
-43.9942 31.7722 632.826
-44.2893 32.07 633.26
-44.0182 32.0678 633.194
-43.7425 32.0623 633.059
-43.4646 32.055 632.891
-44.3088 32.3625 633.561
-44.0417 32.3634 633.553
-37.875 33.0207 624.454
-37.3283 33.0065 624.135
-37.6069 33.0183 624.382
-37.8827 33.3026 624.605
-37.6171 33.3025 624.577
-37.6322 33.5913 624.852
-39.3299 33.681 626.68
-39.0747 33.9665 626.851
-47.6666 31.4444 632.141
-47.3992 31.4442 632.113
-47.1345 31.4458 632.121
-47.4212 31.7363 632.426
-46.8726 31.4493 632.168
-43.1927 32.0522 632.81
-42.9233 32.0512 632.767
-43.7683 32.3596 633.454
-43.494 32.3551 633.341
-44.063 32.6576 633.881
-43.2187 32.3499 633.213
-44.3359 32.6609 633.97
-43.7893 32.6537 633.78
-44.6087 32.6641 634.057
-43.5169 32.6507 633.696
-37.0641 33.2828 624.154
-37.3497 33.3008 624.519
-37.3641 33.589 624.783
-37.1001 33.5905 624.785
-37.1181 33.8825 625.114
-47.6951 31.7408 632.54
-47.1547 31.7368 632.412
-46.8902 31.7387 632.426
-46.6107 31.4529 632.216
-47.176 32.0288 632.718
-47.452 32.0346 632.857
-46.9116 32.0309 632.734
-46.6291 31.7429 632.486
-46.3494 31.457 632.274
-46.3369 31.171 632.083
-42.9486 32.3485 633.162
-42.4069 32.6231 633.059
-43.2429 32.6465 633.59
-44.0794 32.9485 634.138
-43.8086 32.9468 634.081
-44.3493 32.9495 634.183
-42.9698 32.643 633.497
-42.6941 32.6375 633.364
-44.6172 32.949 634.199
-44.8765 32.6636 634.073
-43.5355 32.9435 633.99
-44.8844 32.948 634.206
-45.1488 32.945 634.174
-44.6251 33.2336 634.333
-43.2616 32.9394 633.887
-36.8096 33.5679 624.336
-36.8495 33.8799 625.038
-37.1405 34.1788 625.516
-36.6037 34.1743 625.38
-36.8833 34.1869 625.638
-46.3704 31.7489 632.581
-46.0973 31.4674 632.459
-46.0725 31.1729 632.098
-46.6793 32.333 633.208
-42.4227 32.9138 633.318
-42.1584 33.1957 633.378
-42.7114 32.9294 633.643
-42.4532 33.2162 633.795
-42.9859 32.9339 633.756
-43.8235 33.2368 634.318
-44.3594 33.2357 634.348
-43.5548 33.2369 634.293
-44.8915 33.232 634.328
-45.413 32.942 634.142
-45.1551 33.2283 634.284
-43.2829 33.2345 634.221
-45.4186 33.2246 634.24
-45.1598 33.5104 634.371
-45.6846 33.2229 634.232
-44.8955 33.5137 634.406
-43.013 33.2336 634.178
-36.9153 34.4927 626.206
-36.6413 34.4855 626.048
-37.1822 34.4933 626.243
-36.6696 34.7886 626.558
-46.4216 32.34 633.32
-46.962 32.6214 633.455
-46.7056 32.6294 633.585
-46.449 32.6373 633.714
-46.1889 32.643 633.799
-46.9865 32.9166 633.805
-42.1983 33.5061 634
-41.9295 33.5061 633.974
-42.7419 33.2318 634.117
-42.4826 33.5183 634.257
-43.8387 33.5273 634.559
-43.5733 33.53 634.584
-43.3037 33.5295 634.548
-45.9428 32.937 634.097
-45.4246 33.5077 634.345
-45.95 33.2208 634.218
-43.0336 33.5285 634.504
-45.6927 33.5075 634.367
-45.4357 33.7946 634.521
-45.9594 33.5061 634.367
-42.7599 33.5248 634.407
-36.9459 34.7978 626.751
-37.2253 34.8098 626.995
-36.6877 35.0823 626.893
-36.1013 35.307 625.944
-36.4134 35.3515 626.759
-36.968 35.0951 627.15
-36.6946 35.3654 627.035
-45.9254 32.6462 633.837
-46.7278 32.9232 633.907
-46.4681 32.9291 633.995
-46.7417 33.2113 634.115
-46.207 32.9342 634.067
-46.4792 33.2154 634.167
-47.0111 33.2122 634.157
