-43.459 -12.0918 610.707
-43.2065 -12.0958 610.766
-43.4463 -11.8216 610.549
-43.2166 -12.3655 610.889
-43.1899 -11.8245 610.552
-42.9513 -12.0992 610.789
-42.9299 -11.8265 610.506
-42.9688 -12.371 611.016
-43.4275 -11.55 610.305
-43.1691 -11.5523 610.278
-42.7122 -12.374 611.022
-42.7298 -12.112 611.295
-42.9076 -11.5538 610.208
-42.7261 -12.645 611.201
-42.4767 -12.3831 611.331
-42.4729 -12.649 611.255
-43.4077 -11.2783 610.047
-43.1474 -11.28 609.992
-42.8864 -11.2816 609.928
-42.7428 -12.917 611.419
-42.2281 -12.6557 611.435
-42.8641 -11.0095 609.631
-42.4881 -12.9207 611.454
-42.2354 -12.925 611.519
-42.4942 -13.1897 611.521
-43.3854 -11.0062 609.754
-43.1233 -11.0074 609.672
-42.2483 -13.1962 611.686
-41.9836 -12.9297 611.6
-42.8391 -10.7369 609.297
-43.0983 -10.7349 609.339
-43.3609 -10.7337 609.429
-41.9956 -13.2006 611.753
-42.2508 -13.4642 611.7
-42.0079 -13.4718 611.911
-41.7377 -13.2034 611.746
-42.8186 -10.4657 609.026
-43.079 -10.464 609.086
-42.559 -10.4675 608.976
-43.0694 -10.1956 608.972
-42.806 -10.1966 608.867
-41.7548 -13.4763 611.976
-42.0152 -13.7415 611.997
-41.7695 -13.7484 612.169
-41.496 -13.4789 611.958
-42.5438 -10.1978 608.779
-42.2854 -10.1999 608.744
-42.5386 -9.93055 608.726
-42.0267 -10.2019 608.707
-42.2744 -9.93127 608.607
-41.5153 -13.7526 612.222
-41.2562 -13.7552 612.201
-41.7779 -14.0187 612.272
-41.5288 -14.0247 612.399
-41.2747 -14.029 612.453
-42.0194 -9.93418 608.623
-41.5319 -14.2933 612.423
-41.0158 -14.0317 612.44
-41.2895 -14.3017 612.653
-41.034 -14.3057 612.689
-40.7753 -14.3085 612.68
-41.0497 -14.579 612.902
-41.0459 -14.8454 612.823
-40.7928 -14.5825 612.92
-40.5363 -14.5862 612.945
-40.8019 -14.8536 613.035
-40.5503 -14.8592 613.136
-40.5616 -15.1313 613.285
-40.2952 -14.8635 613.185
-40.3102 -15.1371 613.39
-40.053 -15.1408 613.41
-40.313 -15.4063 613.411
-40.0649 -15.4134 613.57
-39.794 -15.1438 613.404
-39.809 -15.4177 613.611
-39.55 -15.4207 613.606
-40.0814 -15.688 613.8
-39.8218 -15.6909 613.786
-39.5639 -15.6944 613.8
-39.3053 -15.6977 613.802
-39.5803 -15.9693 614.032
-39.8342 -15.9641 613.955
-39.3215 -15.9726 614.033
-39.0637 -15.9763 614.05
-39.5871 -16.2404 614.113
-39.3359 -16.2469 614.235
-39.3267 -16.5115 614.068
-39.0805 -16.2517 614.292
-38.8232 -16.2557 614.319
-39.0916 -16.5249 614.443
-39.082 -16.7894 614.27
-38.8375 -16.5304 614.523
-38.8466 -15.9968 614.714
-38.8506 -16.8046 614.707
-38.5967 -16.8103 614.794
-38.3406 -16.8151 614.847
-38.6059 -17.0831 614.916
-38.3542 -17.09 615.041
-38.0985 -17.0951 615.104
-38.1052 -16.8291 615.235
-38.3659 -17.3641 615.206
-38.1112 -17.3698 615.285
-37.8583 -17.1072 615.419
-37.8539 -17.3743 615.325
-38.1157 -17.6408 615.333
-37.8648 -17.6484 615.478
-37.6067 -17.3835 615.531
-37.6109 -17.6546 615.575
-37.8713 -17.9205 615.56
-37.6207 -17.9284 615.712
-37.3578 -17.6612 615.688
-37.3626 -17.9327 615.743
-37.6293 -18.2017 615.828
-37.376 -18.2084 615.938
-37.105 -17.9373 615.782
-37.1175 -18.2127 615.966
-37.3819 -18.4807 616.012
-37.1309 -18.4887 616.164
-36.8588 -18.2169 615.99
-36.8729 -18.4933 616.201
-36.8852 -18.7691 616.383
-36.6155 -18.4984 616.252
-36.8803 -19.036 616.277
-36.628 -18.7742 616.438
-36.6386 -19.0493 616.591
-36.3824 -19.0551 616.664
-36.3962 -19.3321 616.873
-36.1244 -19.06 616.709
-36.1378 -19.3369 616.913
-35.8931 -19.619 617.163
-35.9015 -19.8936 617.282
-35.6339 -19.6237 617.195
-35.6457 -19.9002 617.374
-35.3861 -19.9046 617.399
-35.655 -20.1754 617.509
-35.1267 -19.9092 617.43
-35.3985 -20.1817 617.59
-35.404 -20.4549 617.659
-35.1401 -20.187 617.64
-35.1493 -20.4624 617.774
