-3.40385 42.3213 585.702
-3.40287 42.5878 585.79
-3.15315 42.0822 585.961
-3.4012 42.8455 585.756
-3.15317 42.3626 586.24
-2.9 42.0932 586.081
-3.15228 42.631 586.351
-3.39924 43.0996 585.674
-2.8999 42.3736 586.36
-2.64622 42.0962 586.091
-3.15095 42.8936 586.38
-2.6459 42.3753 586.35
-2.39254 42.1025 586.145
-3.14935 43.1521 586.355
-3.14771 43.4104 586.326
-2.89906 42.6436 586.49
-2.392 42.3796 586.376
-2.89783 42.9076 586.539
-2.64499 42.6451 586.478
-2.64379 42.91 586.538
-3.14586 43.6657 586.256
-2.8965 43.1706 586.572
-2.39101 42.6487 586.494
-2.89511 43.4325 586.591
-2.64255 43.1747 586.593
-2.89348 43.6908 586.56
-3.14394 43.92 586.175
-2.64119 43.4373 586.622
-2.38968 42.9122 586.534
-2.38837 43.176 586.578
-2.89166 43.9462 586.492
-3.14186 44.172 586.065
-2.88949 44.1962 586.352
-2.63953 43.6948 586.58
-2.38687 43.4364 586.576
-2.63777 43.9509 586.52
-2.3853 43.6953 586.553
-3.13972 44.4231 585.943
-2.88727 44.4453 586.202
-2.63574 44.2023 586.398
-2.38357 43.9513 586.492
-3.13768 44.6752 585.836
-2.88505 44.6943 586.053
-2.63366 44.4527 586.266
-2.38165 44.2035 586.381
-3.13571 44.9284 585.746
-2.88288 44.9438 585.911
-2.63144 44.7005 586.099
-2.3796 44.4537 586.245
-2.12743 44.2031 586.341
-2.88087 45.1958 585.805
-2.62918 44.9477 585.928
-2.37747 44.7017 586.081
-2.12552 44.4547 586.224
-2.627 45.1959 585.771
-2.87906 45.4508 585.737
-2.3753 44.9493 585.914
-2.12344 44.7027 586.06
-2.62516 45.4498 585.69
-2.37307 45.1952 585.728
-2.87829 45.7223 585.882
-2.12128 44.9486 585.871
-2.37119 45.4479 585.631
-2.11908 45.1937 585.674
-2.62406 45.7169 585.779
-2.36987 45.7114 585.673
-2.11719 45.4451 585.56
-2.62373 45.9971 586.032
-2.87854 46.0103 586.236
-2.36926 45.9884 585.887
-2.1158 45.7075 585.588
-1.86327 45.444 585.511
-2.11503 45.9829 585.782
-1.86178 45.7042 585.511
-1.60787 45.7032 585.464
-2.36893 46.2712 586.172
-2.6238 46.285 586.382
-2.11442 46.2621 586.022
-2.87919 46.305 586.671
-2.62359 46.5679 586.665
-1.86087 45.9785 585.691
-1.60687 45.9771 585.639
-1.8601 46.2565 585.916
-1.60594 46.2535 585.843
-1.35178 46.2504 585.768
-2.3683 46.5484 586.383
-2.11341 46.5332 586.157
-2.36717 46.8157 586.469
-1.85908 46.5283 586.06
-2.87924 46.5902 586.98
-2.62265 46.8382 586.785
-2.36559 47.0746 586.448
-2.11221 46.7999 586.236
-1.60488 46.5264 586.001
-1.35075 46.526 585.961
-1.09655 46.5243 585.903
-1.34952 46.7954 586.073
-1.85785 46.7951 586.139
-2.11083 47.0629 586.266
-2.10951 47.3268 586.309
-1.60365 46.7943 586.094
-1.85647 47.0585 586.176
-2.10853 47.5987 586.449
-1.8552 47.3242 586.241
-1.09527 46.7934 586.013
-1.3482 47.0619 586.148
-1.60229 47.0583 586.138
-1.34693 47.3302 586.244
-1.85422 47.5977 586.4
-1.60109 47.327 586.24
-1.60004 47.6007 586.402
-1.85336 47.8745 586.599
-1.59912 47.8781 586.608
-1.3458 47.6031 586.397
-1.34483 47.882 586.62
-1.8526 48.154 586.829
-1.59822 48.1566 586.825
