-59.9298 3.68529 597.771
-59.6869 3.68428 597.822
-59.9144 3.94416 597.631
-59.6702 3.9431 597.669
-59.7026 3.42527 597.966
-60.1551 3.94498 597.559
-59.4419 3.68314 597.853
-59.4594 3.4242 598.015
-59.8963 4.20271 597.464
-60.141 4.20377 597.433
-59.2144 3.42303 598.048
-59.2606 3.68597 598.528
-60.3611 4.72229 597.187
-60.5988 4.72273 597.088
-60.3338 4.97963 596.93
-58.7647 2.90244 598.497
-58.5499 2.90271 598.843
-60.577 4.98048 596.887
-60.3099 5.23706 596.707
-60.5556 5.23808 596.69
-58.7807 2.64288 598.647
-58.5347 2.64157 598.674
-58.5465 2.38167 598.779
-58.3042 2.64096 598.86
-58.301 2.38035 598.813
-57.8553 1.8581 599.322
-57.8588 1.59749 599.344
-57.6064 1.8566 599.323
-57.6171 1.59616 599.42
-57.3875 1.33429 599.61
-57.1454 1.3329 599.686
-57.3884 1.07343 599.606
-57.1548 1.07214 599.77
-56.8985 1.3314 599.712
-56.9161 1.07076 599.883
-57.1654 0.811332 599.867
-56.67 1.06925 599.919
-56.9263 0.809874 599.976
-56.6868 0.80841 600.082
-56.934 0.54888 600.043
-56.4419 0.806871 600.132
-56.7 0.547399 600.207
-56.4602 0.545863 600.313
-56.7167 0.286297 600.369
-56.2142 0.544266 600.352
-56.4751 0.284681 600.456
-56.2322 0.283058 600.529
-55.9838 0.281408 600.546
-56.2509 0.0216973 600.715
-56.0032 0.0200149 600.74
-55.7555 0.018332 600.765
-56.0033 -0.241462 600.725
-55.7747 -0.243263 600.956
-55.5245 -0.244972 600.956
-55.794 -0.505026 601.149
-55.5418 -0.506743 601.128
-55.2949 -0.508509 601.165
-55.5496 -0.768531 601.198
-55.3099 -0.770438 601.313
-55.305 -1.03213 601.245
-55.0639 -0.77226 601.361
-55.339 -0.246971 601.659
-55.0771 -1.03433 601.491
-55.0969 -0.510729 601.737
-54.8319 -1.03622 601.548
-54.8379 -1.29828 601.599
-54.8434 -0.774445 601.691
-54.593 -1.03823 601.679
-54.5978 -1.30034 601.715
-54.3498 -1.30222 601.746
-54.6055 -1.56257 601.785
-54.3663 -1.56474 601.913
-54.0991 -1.30404 601.747
-54.1218 -1.56676 601.984
-54.3742 -1.82712 601.985
-54.1343 -1.82936 602.107
-53.8713 -1.56861 601.988
-53.8888 -1.83141 602.169
-53.6185 -1.5704 601.969
-53.8946 -2.09389 602.217
-53.6386 -1.8333 602.179
-53.656 -2.09627 602.357
-53.3639 -1.57213 601.928
-53.3868 -1.83514 602.171
-53.1097 -1.57388 601.893
-53.1353 -1.83699 602.167
-53.4106 -2.09839 602.423
-53.1603 -2.10032 602.434
-52.8572 -1.57568 601.877
-52.8845 -1.83887 602.171
-52.6046 -1.57747 601.86
-52.6339 -1.84076 602.179
-52.9093 -2.10222 602.438
-52.658 -2.10411 602.438
-52.3584 -1.57946 601.917
-52.5761 -1.31448 601.55
-52.3299 -1.31642 601.605
-52.3876 -1.8428 602.236
-52.1245 -1.58183 602.117
-52.1476 -1.84507 602.368
-52.0969 -1.31869 601.815
-52.0697 -1.05583 601.517
-51.848 -1.05822 601.858
-51.8731 -1.32121 602.134
-51.9112 -1.84747 602.543
-51.8954 -1.58435 602.376
-51.6602 -1.58669 602.566
-51.8176 -0.795387 601.522
-51.6013 -0.797691 601.929
-51.5564 -0.534796 601.42
-51.6306 -1.06071 602.254
-51.6475 -1.32368 602.434
-51.408 -1.32582 602.576
-51.4015 -1.06296 602.517
-51.3411 -0.536912 601.842
-51.2882 -0.274206 601.237
-51.3821 -0.799958 602.305
-51.123 -0.539006 602.234
-51.5084 -0.272328 600.878
-51.0832 -0.276172 601.781
