-6.75684 -22.7189 655.341
-6.75617 -22.4316 655.436
-6.47656 -22.7327 655.624
-6.47594 -22.4456 655.728
-5.63652 -24.2057 655.814
-5.35181 -22.7855 656.677
-5.35082 -22.497 656.759
-5.63766 -24.4943 655.753
-5.35536 -24.2204 656.098
-5.06968 -22.7976 656.909
-6.46933 -20.426 656.229
-5.06861 -22.5088 656.985
-5.07246 -23.6616 656.626
-5.35631 -24.5082 656.013
-5.07315 -23.9483 656.502
-4.79111 -23.9617 656.756
-4.79037 -23.675 656.884
-4.5103 -24.5484 656.748
-4.51114 -24.8353 656.631
-4.50479 -22.8226 657.396
-4.50344 -22.5324 657.439
-4.50705 -23.4004 657.24
-4.78308 -21.6546 657.475
-4.5121 -25.1228 656.529
-4.50781 -23.6874 657.111
-6.46806 -20.1363 656.269
-6.1881 -20.4374 656.471
-6.18678 -20.1474 656.507
-5.62484 -20.4602 656.956
-6.46483 -19.2684 656.442
-5.62379 -20.171 657.027
-6.74571 -19.2571 656.182
-6.18366 -19.2798 656.702
-7.02627 -19.2456 655.918
-4.22046 -22.5441 657.662
-4.22176 -22.834 657.606
-4.50854 -23.974 656.977
-4.22674 -24.274 657.093
-4.22588 -23.9869 657.217
-4.225 -23.6997 657.337
-4.22394 -23.4113 657.431
-4.22767 -24.5612 656.979
-4.22848 -24.8478 656.848
-4.22956 -25.1358 656.758
-3.9448 -24.5742 657.212
-4.23048 -25.4228 656.644
-3.94764 -25.4353 656.855
-3.93846 -22.8453 657.815
-3.93733 -22.5565 657.904
-4.50036 -21.6666 657.718
-4.78195 -21.3653 657.547
-4.49916 -21.3769 657.783
-4.2312 -25.7084 656.498
-3.94857 -25.722 656.734
-5.34284 -20.4716 657.201
-5.34175 -20.1823 657.272
-6.46359 -18.9786 656.485
-6.74444 -18.9672 656.219
-6.18246 -18.99 656.75
-7.02518 -18.9563 655.97
-3.65727 -23.4344 657.848
-3.94392 -24.2874 657.341
-3.65857 -23.7241 657.783
-3.6626 -24.8739 657.313
-3.66354 -25.1607 657.184
-3.37905 -24.8853 657.501
-3.37808 -24.5986 657.636
-3.94933 -26.0075 656.585
-3.66456 -25.4479 657.07
-3.66655 -26.0217 656.832
-3.3736 -23.446 658.057
-3.95001 -26.2924 656.423
-3.66727 -26.3064 656.664
-3.37488 -23.7354 657.983
-3.65981 -24.0131 657.705
-3.37616 -24.0248 657.911
-3.37717 -24.312 657.781
-3.38014 -25.1729 657.39
-3.38121 -25.4603 657.277
-3.09538 -24.8976 657.714
-3.38244 -25.7487 657.193
-3.09649 -25.185 657.594
-3.09428 -24.6101 657.832
-3.09324 -24.3231 657.967
-3.66812 -26.592 656.519
-3.95066 -26.5769 656.255
-3.09767 -25.473 657.493
-3.10106 -26.335 657.156
-3.10203 -26.6207 657.01
-3.09882 -25.7605 657.383
-2.81266 -25.1976 657.81
-2.81385 -25.4853 657.7
-2.81501 -25.7726 657.581
-3.10299 -26.9062 656.86
-2.81742 -26.3479 657.369
-2.81853 -26.6346 657.242
-2.81617 -26.06 657.466
-2.81956 -26.9202 657.092
-2.53349 -26.3605 657.573
-2.53475 -26.6481 657.466
-2.53093 -25.7844 657.771
-2.53217 -26.072 657.66
