-51.3081 10.964 599.244
-51.3052 11.225 599.226
-51.3173 10.7044 599.336
-51.57 10.9672 599.379
-51.0451 10.9607 599.095
-51.0547 10.7011 599.191
-51.5717 11.2292 599.416
-51.0385 11.2208 599.034
-51.5798 10.7076 599.477
-51.3102 11.4878 599.302
-51.0389 11.4825 599.056
-51.5838 11.4936 599.573
-51.3348 10.4463 599.523
-51.0682 10.4423 599.334
-51.5951 10.449 599.639
-51.8361 10.9712 599.563
-51.8399 10.7103 599.591
-51.8417 11.2341 599.644
-50.7799 10.9568 598.919
-50.795 10.6985 599.081
-50.769 11.2159 598.807
-50.8057 10.4391 599.191
-50.5409 10.697 599.036
-51.8541 11.4986 599.803
-50.7654 11.4766 598.781
-51.0462 11.7457 599.157
-51.8517 10.4509 599.711
-51.3217 11.7521 599.452
-51.5954 11.758 599.724
-50.7751 11.7403 598.912
-51.8575 11.7612 599.859
-51.352 10.188 599.708
-51.0892 10.1848 599.563
-51.6113 10.1905 599.811
-50.8273 10.1818 599.429
-51.8638 10.1916 599.834
-52.1077 10.4528 599.776
-52.1033 10.9754 599.758
-52.1015 10.7133 599.721
-52.1107 11.2387 599.858
-52.1143 11.5014 599.917
-50.5156 10.9531 598.752
-50.499 11.2109 598.573
-50.2729 10.6926 598.826
-50.4974 11.4719 598.57
-50.2538 10.9499 598.615
-50.5056 11.7353 598.683
-51.0525 12.0088 599.247
-50.787 12.0047 599.068
-52.119 10.1932 599.889
-50.5186 11.9998 598.854
-52.3766 11.2427 600.037
-51.367 9.92908 599.866
-51.1088 9.92686 599.777
-51.6259 9.93145 599.964
-50.8545 9.92538 599.733
-51.8783 9.93257 599.986
-50.347 9.92264 599.658
-52.138 9.93507 600.092
-52.3686 10.4556 599.897
-52.367 10.717 599.894
-52.3805 10.1961 600.017
-52.3731 10.9801 599.98
-52.6365 11.2454 600.145
-50.2438 11.2092 598.513
-50.2355 11.4687 598.43
-50.238 11.7306 598.477
-50.2486 11.9946 598.62
-50.5267 12.2634 598.967
-50.257 12.2581 598.736
-52.3956 9.93719 600.175
-52.6409 10.9844 600.179
-52.6365 10.7216 600.114
-51.3825 9.67016 600.031
-51.1264 9.66835 599.967
-51.637 9.67168 600.077
-51.8998 9.67473 600.219
-50.3718 9.66555 599.937
-50.0937 9.92136 599.626
-50.1144 9.66349 599.857
-50.0725 10.1789 599.389
-49.8359 9.9192 599.541
-49.8573 9.66148 599.781
-49.8112 10.176 599.261
-52.4129 9.6785 600.356
-52.6513 9.93893 600.234
-52.6355 10.4596 600.086
-52.6406 10.1987 600.128
-52.9074 10.9884 600.362
-52.9066 10.7263 600.337
-49.9795 11.4667 598.36
-49.9735 11.7267 598.306
-49.9759 11.9886 598.35
-49.9865 12.2526 598.494
-49.9939 12.5159 598.599
-52.6626 9.67912 600.347
-52.9054 9.94036 600.276
-52.8991 10.4629 600.235
-51.4031 9.41202 600.255
-51.146 9.41004 600.18
-51.6647 9.41481 600.382
-50.3926 9.40744 600.167
-50.1366 9.40569 600.106
-49.8817 9.40413 600.057
-50.4126 9.14902 600.389
-49.5789 9.91719 599.465
-49.6038 9.66019 599.748
-49.5595 10.1751 599.247
-49.3257 9.91595 599.435
-49.6326 9.40368 600.08
-49.3458 9.658 599.661
-49.3103 10.1747 599.265
-52.4263 9.41897 600.494
-52.6795 9.42023 600.524
-52.9157 9.68038 600.377
-52.8978 10.2008 600.205
-53.1625 9.94237 600.352
-53.1706 10.9917 600.507
-53.1715 10.7299 600.501
-53.4282 10.9938 600.587
-53.163 10.4663 600.389
-49.715 11.4628 598.188
-49.708 11.7225 598.121
-49.4534 11.4596 598.049
-49.7078 11.9838 598.135
-49.7151 12.2469 598.239
-49.724 12.5105 598.364
-49.4606 12.7681 598.221
-49.4525 12.5046 598.106
-52.9324 9.42144 600.55
-53.1727 9.68234 600.451
-53.1582 10.2034 600.319
-50.1586 9.14763 600.352
-49.9081 9.14691 600.359
-50.1755 8.88847 600.538
-49.6563 9.14594 600.349
-49.3738 9.40138 599.984
-49.9175 8.88638 600.454
-49.0715 9.91449 599.392
-49.0533 10.1726 599.187
-49.0308 10.4296 598.93
-49.0914 9.65653 599.618
-48.831 9.65389 599.502
-48.848 9.39521 599.693
-48.7921 10.1697 599.058
-48.8138 9.91235 599.308
-53.1889 9.42331 600.618
-53.4254 9.94544 600.492
-53.4242 10.2071 600.495
-53.4308 9.68451 600.537
-53.4404 10.7343 600.708
-53.4329 10.4708 600.609
-53.7137 10.7395 600.964
-53.7069 10.4761 600.871
-49.4466 11.7192 597.984
-49.444 11.9799 597.969
-49.1857 11.7161 597.853
-49.1847 11.9771 597.857
-49.4467 12.2418 598.019
-49.1952 12.7637 598.037
-49.1861 12.5 597.909
-48.9287 12.7589 597.836
-49.1826 12.2378 597.849
-53.4482 9.42567 600.717
-48.7705 10.4269 598.811
-48.5364 10.1679 598.996
-49.0087 10.6865 598.676
-48.7516 10.6844 598.595
-48.5148 10.4251 598.747
-48.578 9.65269 599.476
-48.5962 9.39426 599.683
-48.5578 9.91053 599.243
-48.3287 9.65222 599.494
-48.3504 9.39446 599.747
-48.2828 10.1666 598.96
-48.3054 9.90946 599.224
-53.711 9.42862 600.854
-53.6974 9.68821 600.718
-53.6913 9.94906 600.665
-53.694 10.2116 600.712
-53.9802 10.7434 601.141
-53.9783 10.4808 601.105
-53.9672 10.2166 600.965
-48.9197 11.7117 597.658
-48.9246 11.9741 597.735
-48.6798 11.4523 597.765
-48.9217 12.2346 597.717
-48.9214 12.4958 597.731
-48.6632 12.7544 597.648
-48.6544 12.4909 597.523
-53.7288 9.16964 601.038
-48.4948 10.6823 598.517
-48.2603 10.4235 598.699
-48.0304 10.1655 598.94
-48.9857 10.943 598.413
-48.7317 10.9415 598.369
-48.4747 10.9394 598.287
-48.2383 10.6803 598.444
-48.0058 10.422 598.651
-48.0858 9.65307 599.595
-48.3772 9.13742 600.061
-48.1129 9.3963 599.915
-48.0576 9.90933 599.261
-48.1418 9.13959 600.258
-47.7896 10.1669 599.065
-53.973 9.43144 600.983
-53.9627 9.69166 600.884
-53.9879 9.17192 601.134
-54.2325 9.4338 601.083
-53.959 9.95301 600.859
-54.2556 10.4867 601.401
-54.2419 10.2219 601.233
-54.5315 10.4923 601.68
-54.2289 9.95733 601.074
-48.4255 11.4507 597.714
-48.653 12.2294 597.489
-48.7064 11.1972 598.075
-48.4498 11.1951 597.997
-48.176 11.4503 597.723
-48.1957 11.1936 597.95
-48.1202 13.0032 597.134
-54 8.91178 601.252
-54.2444 9.17373 601.198
-48.2177 10.9372 598.205
-47.9832 10.6786 598.386
-47.7573 10.4217 598.678
-47.9596 10.9348 598.109
-47.7308 10.6775 598.363
-47.5124 10.4223 598.752
-47.821 9.91156 599.441
-54.2266 9.69483 601.033
-54.257 8.91369 601.323
-54.5008 9.17555 601.264
-54.4933 9.43639 601.197
-54.4939 9.6986 601.218
-54.5181 10.2274 601.517
-54.5021 9.96224 601.325
-54.8068 10.4977 601.95
-54.7995 10.2339 601.854
-54.7793 9.96782 601.617
-55.0678 10.5003 602.062
-55.0777 10.2397 602.155
-47.9189 11.448 597.637
-47.9369 11.191 597.844
-47.8954 11.7036 597.361
-47.6778 11.1883 597.734
-47.6575 11.4448 597.498
-48.1304 13.2671 597.279
-48.1021 12.7373 596.893
-47.8504 13.2584 596.905
-47.8324 12.9925 596.663
-47.8317 12.7314 596.637
-47.5759 13.2511 596.597
-47.5593 12.9857 596.372
-54.515 8.91575 601.405
-47.7041 10.933 598.046
-47.4852 10.678 598.426
-47.4571 10.9332 598.09
-54.7737 8.91792 601.494
-54.5457 8.65844 601.728
-54.7616 9.17809 601.376
-54.7584 9.4397 601.357
-54.7635 9.70275 601.428
-55.0599 9.97401 601.945
-55.3532 10.245 602.424
-55.0398 9.70808 601.71
-55.0253 9.44331 601.536
-55.3423 9.98047 602.289
-55.3182 9.71373 602.012
-47.404 11.4434 597.456
-47.634 11.7002 597.22
-47.4291 11.1881 597.754
-47.8707 11.9586 597.071
-47.3754 11.6976 597.113
-47.6073 11.9547 596.903
-47.1809 11.188 597.783
-47.1497 11.4418 597.404
-47.5822 12.2092 596.606
-47.5549 12.7237 596.299
-47.3039 12.9837 596.3
-47.299 12.7216 596.22
-47.0449 12.9807 596.184
-47.3038 12.4621 596.264
-47.0445 12.7198 596.16
-54.7942 8.65896 601.703
-55.0333 8.92024 601.593
-55.0243 9.18095 601.51
-55.0492 8.66052 601.751
-54.7948 8.39679 601.695
-55.0613 8.40011 601.868
-55.2955 9.44747 601.75
-55.6341 10.2513 602.749
-55.6273 9.98735 602.66
-55.5984 9.71967 602.332
-55.2878 9.18393 601.651
-55.5715 9.45259 602.025
-55.557 9.18784 601.853
-47.1144 11.6943 596.975
-47.3471 11.9516 596.775
-47.0863 11.9483 596.637
-47.3204 12.2056 596.456
-47.0652 12.2037 596.387
-47.0503 12.4606 596.217
-46.7902 12.4574 596.086
-46.7728 12.974 595.899
-46.7775 12.7146 595.941
-55.3076 8.66262 601.836
-55.2948 8.92285 601.712
-55.3247 8.40295 602.007
-55.3443 8.14348 602.205
-55.5756 8.40386 602.009
-55.5656 8.66464 601.915
-55.5589 8.92586 601.858
-55.9056 9.993 602.955
-55.9216 10.2587 603.144
-55.8792 9.72566 602.655
-55.8495 9.45803 602.321
-56.1303 9.46389 602.643
-55.8299 9.19234 602.094
-55.8229 8.92886 602.003
-46.8225 11.9442 596.461
-46.806 12.2007 596.268
-46.5192 12.4512 595.813
-46.5305 12.1935 595.939
-55.5936 8.14419 602.189
-55.8265 8.40481 602.012
-55.8257 8.66699 602.018
-56.0866 8.40713 602.114
-56.1045 9.19708 602.351
-56.0891 8.9322 602.171
-56.3606 8.93636 602.394
-56.0863 8.66942 602.126
-56.3514 8.41015 602.266
-56.3494 8.67221 602.26
-56.6206 8.67624 602.479
-56.6181 8.41344 602.437
-56.6257 8.15214 602.504
-56.8847 8.4167 602.606
-56.8889 8.15485 602.636
-57.1511 8.41991 602.772
-57.1464 8.15674 602.708
-57.1563 7.89565 602.797
-57.4137 8.16004 602.883
-57.4147 7.89766 602.878
-57.43 7.63719 603.025
-57.6854 7.90136 603.089
-57.6877 8.16427 603.127
-57.6951 7.64008 603.175
-57.4513 7.37736 603.233
-57.7159 7.38012 603.377
-57.9548 7.64222 603.268
-57.9539 7.90472 603.273
-57.9661 7.38105 603.371
-58.2214 7.38262 603.418
-58.2191 7.64498 603.409
-58.2255 7.90851 603.49
-58.4898 7.38585 603.6
-58.4924 7.64889 603.641
-58.4966 7.12397 603.656
-58.2492 6.86061 603.677
-58.7595 7.38922 603.795
-58.7626 7.12684 603.812
-58.5076 6.86254 603.755
-58.769 6.86482 603.863
-58.5198 6.60116 603.866
-58.0045 6.8603 603.742
-58.2634 6.59947 603.809
-58.0148 6.59867 603.835
-59.0286 7.3925 603.981
-59.0263 7.12941 603.944
-59.0304 6.86709 603.971
-58.7829 6.6036 603.992
-59.0447 6.6059 604.104
-58.5436 6.34095 604.098
-58.2912 6.3397 604.083
-58.804 6.34306 604.194
-58.0491 6.33958 604.177
-58.0655 6.07833 604.334
-59.2916 7.13217 604.091
-59.292 6.86939 604.082
-59.304 6.60791 604.189
-59.0651 6.34525 604.298
-59.3225 6.34703 604.363
-58.5708 6.08088 604.364
-58.316 6.07938 604.326
-58.8287 6.08271 604.434
-59.0876 6.08464 604.514
-58.0873 5.81747 604.545
-57.834 5.81612 604.524
-58.3416 5.81893 604.577
-58.5983 5.82062 604.633
-59.555 6.87184 604.205
-59.5639 6.60998 604.281
-59.5797 6.34879 604.427
-59.3449 6.0864 604.578
-59.5995 6.08788 604.613
-59.8369 6.35055 604.491
-58.8538 5.82219 604.678
-59.1094 5.82377 604.722
-59.3639 5.82525 604.757
-58.1101 5.55653 604.768
-57.8574 5.55524 604.755
-58.3643 5.55798 604.798
-57.6001 5.5535 604.693
-58.6225 5.5598 604.869
-58.8783 5.5614 604.915
-59.8224 6.87479 604.372
-59.8263 6.61233 604.397
-59.8524 6.0892 604.633
-59.6177 5.82666 604.784
-59.8705 5.82797 604.802
-60.1083 6.09081 604.682
-60.0968 6.35259 604.58
-59.1316 5.56276 604.936
-59.3829 5.56394 604.937
-59.6367 5.56536 604.962
-58.1291 5.29506 604.951
-57.8775 5.29385 604.95
-58.3833 5.2965 604.98
-57.6219 5.29228 604.907
-57.3659 5.29066 604.86
-58.6425 5.2984 605.06
-57.1162 5.28964 604.88
-58.8979 5.29996 605.102
-59.1522 5.30142 605.131
-60.1257 5.82952 604.843
-60.1456 5.56832 605.029
-60.3835 5.83132 604.912
-60.3682 6.09284 604.772
-59.4061 5.30286 605.158
-59.6598 5.30426 605.182
-59.9139 5.30572 605.211
-58.1497 5.03356 605.151
-57.899 5.03241 605.16
-58.4032 5.03495 605.172
-57.6466 5.03111 605.152
-58.6618 5.03678 605.245
-57.3928 5.02971 605.129
-57.1414 5.02851 605.133
-56.8701 5.28896 604.94
-58.9167 5.0383 605.28
-56.8911 5.02741 605.148
-57.1706 4.76748 605.426
-59.1733 5.03996 605.333
-59.4303 5.04166 605.39
-60.4024 5.57001 605.086
-60.1689 5.30725 605.25
-60.4238 5.30877 605.287
-59.6821 5.04292 605.394
-59.9343 5.04421 605.403
-60.1894 5.04576 605.442
-58.1722 4.77204 605.37
-57.9217 4.77089 605.383
-58.4258 4.77345 605.391
-57.6685 4.76952 605.367
-58.6866 4.77545 605.487
-57.4159 4.7682 605.358
-58.9426 4.77706 605.532
-56.3847 4.76119 605.103
-59.1978 4.7786 605.57
-56.4067 4.49943 605.324
-57.4344 4.50613 605.538
-57.1991 4.24246 605.698
-57.6914 4.5078 605.592
-59.4539 4.78022 605.617
-59.7077 4.78165 605.64
-60.4487 5.04765 605.522
-60.2145 4.78447 605.68
-59.9603 4.78299 605.652
-58.1925 4.51017 605.568
-57.942 4.50899 605.58
-58.7138 4.51409 605.753
-58.973 4.51594 605.83
-59.2253 4.51727 605.837
-56.1275 4.75949 605.045
-56.16 4.49858 605.38
-55.9045 4.49703 605.343
-56.4342 4.2379 605.603
-56.1854 4.23685 605.639
-56.6858 4.23917 605.599
-59.4783 4.51865 605.851
-55.932 4.23545 605.626
-56.9428 4.24084 605.653
-57.4551 4.24406 605.741
-57.7094 4.24554 605.767
-57.2188 3.98016 605.893
-56.9645 3.97867 605.868
-57.4744 3.98173 605.93
-57.9585 4.24664 605.738
-59.7335 4.52019 605.888
-59.9883 4.52171 605.921
-58.211 4.24798 605.745
-58.4724 4.24998 605.845
-58.7411 4.25251 606.02
-58.9967 4.25408 606.059
-59.2479 4.25534 606.054
-59.5028 4.25687 606.086
-55.6716 4.23353 605.537
-55.9521 3.97311 605.828
-56.4559 3.97571 605.821
-56.2038 3.97439 605.822
-56.7104 3.97721 605.847
-59.7606 4.25861 606.148
-55.6977 3.97163 605.805
-55.4389 3.96984 605.734
-57.7291 3.98324 605.958
-57.981 3.98456 605.958
-57.2429 3.71797 606.133
-56.9888 3.71648 606.112
-56.733 3.7149 606.073
-57.7538 3.7211 606.203
-58.2354 3.98605 605.984
-58.4996 3.98822 606.113
-58.7644 3.99042 606.245
-59.0177 3.99185 606.26
-59.2701 3.99321 606.267
-59.5284 3.99497 606.332
-55.4622 3.70753 605.974
-55.9723 3.71059 606.031
-55.7197 3.70922 606.029
-56.223 3.71184 606.015
-56.4765 3.71327 606.027
-55.491 3.44536 606.272
-54.6759 3.96543 605.669
-58.0099 3.72271 606.246
-58.2679 3.72444 606.308
-56.7573 3.4525 606.319
-56.5025 3.45097 606.291
-57.7833 3.45903 606.498
-58.0424 3.46081 606.57
-58.5277 3.72628 606.388
-58.7865 3.72806 606.459
-55.7407 3.44656 606.242
-55.9937 3.44797 606.248
-56.2487 3.44951 606.276
-56.0195 3.18542 606.512
-55.5325 2.91939 606.695
-55.2823 2.91809 606.722
-54.4248 3.9642 605.683
-54.6995 3.70312 605.915
-54.4514 3.70206 605.963
-54.1759 3.96313 605.724
-54.1967 3.70057 605.94
-54.4709 3.43924 606.165
-53.9217 3.96169 605.705
-53.9383 3.69883 605.876
-58.2993 3.46248 606.62
-58.5534 3.46397 606.641
-56.7878 3.19023 606.628
-56.5308 3.18858 606.581
-56.2755 3.18702 606.55
-57.8086 3.19648 606.749
-58.069 3.19832 606.834
-58.326 3.19998 606.883
-58.8083 3.46551 606.67
-56.0452 2.92263 606.775
-56.3051 2.92443 606.853
-55.5492 2.65594 606.862
-55.2984 2.65458 606.884
-55.0478 2.65323 606.909
-55.5731 2.39265 607.107
-56.072 2.65966 607.049
-54.7737 2.91507 606.689
-54.7944 2.65175 606.903
-54.7565 3.17842 606.515
-55.3191 2.39112 607.096
-55.0677 2.38971 607.112
-54.2174 3.43781 606.156
-54.4926 3.17637 606.391
-53.958 3.436 606.081
-53.6727 3.96062 605.745
-53.6822 3.69723 605.837
-54.2346 3.17466 606.332
-53.9793 3.17311 606.304
-53.4217 3.95942 605.765
-53.429 3.69584 605.831
-53.7004 3.43432 606.027
-58.5793 3.20144 606.895
-58.8324 3.20289 606.904
-56.814 2.92748 606.894
-56.56 2.92598 606.878
-56.8404 2.66451 607.161
-57.8376 2.93389 607.039
-58.0956 2.9356 607.097
-58.3509 2.93717 607.128
-58.6052 2.9387 607.148
-56.3354 2.66162 607.165
-56.5874 2.66304 607.157
-55.8336 2.39445 607.191
-54.8151 2.38825 607.117
-54.5411 2.65028 606.9
-55.6032 2.12938 607.421
-55.3454 2.1277 607.369
-55.8665 2.13128 607.534
-56.1027 2.39663 607.367
-56.3634 2.39844 607.451
-54.5169 2.91344 606.646
-54.2574 2.91165 606.572
-54.2861 2.64873 606.877
-54.5647 2.38688 607.146
-55.0912 2.12614 607.355
-54.8374 2.12461 607.348
-53.9997 2.90997 606.518
-53.726 3.17168 606.299
-53.1604 3.95745 605.667
-53.179 3.69468 605.863
-53.4433 3.43266 605.978
-53.7506 2.90875 606.561
-53.4682 3.16998 606.243
-57.3529 2.66775 607.238
-56.8673 2.40132 607.433
-56.6144 2.39984 607.431
-57.1246 2.40299 607.482
-57.8684 2.67114 607.347
-57.6114 2.66947 607.3
-58.123 2.67268 607.369
-58.3766 2.67418 607.38
-54.5881 2.12326 607.391
-54.3141 2.38551 607.174
-55.6365 1.86595 607.769
-55.3767 1.8642 607.697
-56.1283 2.13312 607.629
-55.1192 1.86253 607.649
-55.8958 1.86769 607.837
-56.1524 1.86934 607.875
-56.386 2.1348 607.679
-56.6399 2.13634 607.69
-54.0249 2.64687 606.785
-54.3391 2.12192 607.437
-54.8647 1.86095 607.635
-54.6107 1.85939 607.627
-52.4025 3.68936 605.656
-57.3835 2.40473 607.547
-57.6393 2.40633 607.579
-57.151 2.13955 607.747
-57.4072 2.14118 607.782
-57.8938 2.40789 607.599
-58.1495 2.40949 607.631
-54.3602 1.85796 607.658
-55.6637 1.60205 608.051
-55.4083 1.60043 608.028
-55.9199 1.60369 608.083
-55.1516 1.59878 607.991
-56.4073 1.87093 607.894
-54.8945 1.59711 607.949
-56.1764 1.60534 608.119
-56.4336 1.60701 608.162
-56.6632 1.87255 607.925
-56.9201 1.87421 607.967
-54.1069 1.85643 607.659
-53.8502 1.85478 607.621
-54.6365 1.59542 607.898
-54.3799 1.59377 607.862
-52.1519 3.68817 605.682
-52.4301 3.42704 605.958
-52.1684 3.42508 605.857
-52.1256 3.95035 605.393
-51.894 3.68646 605.624
-51.9135 3.42358 605.834
-51.8794 3.94952 605.47
-52.114 4.21347 605.274
-51.6399 3.68502 605.61
-57.6626 2.14278 607.81
-57.9189 2.14441 607.847
-57.1756 1.87582 607.994
-57.4315 1.87745 608.025
-54.1266 1.59222 607.863
-55.6847 1.33775 608.265
-55.431 1.33616 608.262
-55.9407 1.33939 608.294
-55.1781 1.33459 608.267
-56.2004 1.34113 608.363
-54.924 1.33299 608.26
-56.6897 1.60865 608.195
-54.6637 1.33125 608.185
-56.4625 1.34292 608.458
-56.7204 1.34461 608.508
-56.9487 1.61037 608.257
-57.2043 1.61199 608.284
-53.8699 1.59057 607.827
-53.5939 1.85315 607.589
-53.6114 1.58886 607.771
-53.3339 1.85139 607.514
-53.3529 1.58716 607.714
-54.4047 1.32953 608.123
-54.1457 1.32781 608.062
-51.6579 3.42203 605.805
-51.866 4.21255 605.329
-51.6244 3.94803 605.445
-51.6114 4.2111 605.309
-51.3882 3.68375 605.625
-51.4096 3.42097 605.861
-51.372 3.94674 605.451
-51.8456 4.47486 605.108
-51.594 4.47368 605.122
-53.8877 1.32612 608.013
-55.7058 1.07326 608.48
-55.4509 1.07163 608.464
-55.966 1.075 608.553
-55.198 1.07003 608.47
-56.226 1.07673 608.625
-54.9462 1.06846 608.49
-56.4879 1.0785 608.717
-54.6874 1.06675 608.433
-54.4274 1.06502 608.362
-56.7487 1.08025 608.797
-56.9772 1.34627 608.546
-53.6298 1.32443 607.964
-53.0712 1.84954 607.409
-53.3032 2.115 607.18
-53.0943 1.58545 607.658
-53.3721 1.32275 607.917
-53.0465 2.11336 607.142
-52.8132 1.84785 607.357
-53.1155 1.32109 607.883
-52.8362 1.58376 607.605
-54.1682 1.0633 608.299
-53.908 1.06157 608.225
-51.3589 4.20983 605.313
-51.3392 4.47222 605.097
-51.1177 3.94531 605.435
-51.1033 4.2083 605.281
-51.8229 4.73676 604.86
-51.5722 4.73568 604.882
-51.3156 4.73406 604.836
-51.086 4.47091 605.093
-53.6525 1.05992 608.204
-55.731 0.808654 608.74
-55.4731 0.806959 608.692
-55.9906 0.810375 608.806
-55.2195 0.805327 608.693
-56.2524 0.812127 608.896
-54.9654 0.803687 608.687
-56.5141 0.813877 608.984
-54.7074 0.801991 608.639
-54.4503 0.800307 608.601
-54.1932 0.798625 608.564
-53.3948 1.05824 608.16
-52.789 2.11169 607.095
-52.5567 1.84622 607.323
-52.8602 1.31947 607.865
-52.58 1.58212 607.576
-53.1371 1.05655 608.115
-52.2994 1.84455 607.28
-52.8822 1.05492 608.102
-52.6035 1.31781 607.831
-52.3233 1.58047 607.541
-53.9354 0.796932 608.519
-53.6756 0.795209 608.451
-51.0615 4.73269 604.82
-50.8353 4.46982 605.119
-51.8092 4.99932 604.717
-52.0617 5.00054 604.716
-51.5529 4.99772 604.672
-52.3068 5.00106 604.631
-51.296 4.99607 604.622
-51.0388 4.9944 604.567
-50.8092 4.73147 604.825
-53.4181 0.793519 608.408
-55.7588 0.543845 609.028
-55.5008 0.542144 608.981
-56.02 0.545576 609.11
-55.2453 0.540468 608.961
-54.9881 0.538776 608.923
-56.2817 0.547313 609.198
-54.7302 0.537076 608.877
-54.2217 0.53375 608.868
-53.9632 0.532045 608.816
-53.16 0.791823 608.36
-52.047 1.84306 607.293
-52.6283 1.05331 608.1
-52.3473 1.31617 607.802
-52.071 1.57895 607.556
-52.9036 0.790151 608.331
-52.0258 2.10705 607.062
-51.779 2.10582 607.141
-52.65 0.788521 608.335
-52.3711 1.05163 608.062
-52.0963 1.31465 607.835
-53.7022 0.530316 608.736
-53.4424 0.528598 608.67
-50.7849 4.99305 604.553
-50.5474 4.72937 604.717
-51.7901 5.26119 604.51
-52.0453 5.26268 604.542
-51.5361 5.25984 604.492
-52.297 5.26381 604.534
-52.5407 5.26414 604.434
-51.2812 5.2584 604.465
-52.2704 5.5247 604.243
-52.0226 5.52399 604.295
-51.0259 5.25691 604.432
-50.7676 5.25512 604.364
-50.5217 4.99078 604.427
-53.1862 0.526916 608.643
-55.7903 0.278803 609.357
-55.5297 0.277085 609.282
-55.2728 0.275386 609.248
-55.0166 0.27369 609.222
-54.7578 0.271981 609.168
-54.5023 0.270288 609.15
-54.2478 0.268601 609.145
-53.9914 0.266904 609.118
-53.7312 0.265187 609.048
-52.9289 0.525223 608.606
-52.0095 2.37106 606.888
-51.757 2.36962 606.9
-52.3973 0.786904 608.349
-52.6732 0.523546 608.587
-51.9852 2.63452 606.621
-51.7379 2.63337 606.692
-53.4716 0.263475 608.986
-53.2126 0.261765 608.93
-50.5083 5.25321 604.283
-51.7717 5.52298 604.312
-51.5204 5.52191 604.325
-51.2658 5.5205 604.299
-52.5204 5.52564 604.217
-52.2482 5.78582 604.002
-52.4927 5.78613 603.915
-51.0092 5.51888 604.25
-52.0022 5.78536 604.075
-51.7533 5.78458 604.114
-50.7552 5.51755 604.234
-50.4997 5.51604 604.198
-50.2419 5.25057 604.118
-52.9559 0.260066 608.899
-55.5601 0.0117644 609.6
-55.303 0.010054 609.565
-55.0469 0.0083434 609.543
-54.7882 0.006632 609.491
-54.5273 0.0049208 609.414
-54.2712 0.0032099 609.391
-54.0153 0.0014988 609.371
-53.7569 -0.0002126 609.324
-53.4962 -0.0019239 609.249
-52.6985 0.258364 608.863
-53.2385 -0.0036354 609.21
-52.9821 -0.0053471 609.185
-50.2332 5.51334 604.03
-51.5015 5.78349 604.12
-51.2478 5.78218 604.104
-52.7406 5.78683 603.867
-52.9999 5.78878 603.951
-52.2208 6.04614 603.703
-52.4792 6.048 603.776
-51.9688 6.04501 603.703
-52.7258 6.0485 603.714
-51.4748 6.04396 603.822
-52.7268 -0.0070589 609.173
-55.3347 -0.25556 609.899
-55.0756 -0.257273 609.844
-54.8153 -0.258981 609.777
-54.5549 -0.260688 609.707
-54.295 -0.262397 609.643
-54.0368 -0.264114 609.598
-53.7771 -0.265824 609.536
-53.5178 -0.267537 609.48
-53.2605 -0.269259 609.446
-53.0068 -0.270999 609.452
-51.2243 6.04304 603.844
-52.975 6.04932 603.683
-53.2461 5.7893 603.885
-53.2231 6.05002 603.641
-55.1039 -0.523148 610.142
-54.8401 -0.52482 610.037
-54.5804 -0.52653 609.976
-54.3211 -0.528244 609.92
-54.0604 -0.529944 609.849
-53.7984 -0.531632 609.762
-53.5394 -0.533348 609.709
-53.2838 -0.535099 609.695
-54.6039 -0.792576 610.222
-54.3446 -0.794293 610.168
-54.0848 -0.796003 610.108
-53.8262 -0.797729 610.06
-53.5666 -0.799443 610.003
