-27.9888 41.5641 611.954
-27.7376 41.8516 612.187
-27.707 41.534 611.479
-27.4596 41.8271 611.796
-27.9609 41.2514 611.312
-28.0202 41.8827 612.674
-27.49 42.1453 612.506
-27.2114 42.1197 612.101
-27.1847 41.8069 611.467
-27.4304 41.5112 611.111
-26.9375 42.1011 611.797
-26.9628 42.4125 612.404
-27.6742 41.2138 610.722
-27.1582 41.4949 610.837
-26.9154 41.795 611.261
-27.241 42.4376 612.799
-27.526 42.4729 613.342
-26.6904 42.3961 612.134
-26.6674 42.088 611.574
-26.422 42.3859 611.954
-26.712 42.7027 612.666
-26.4377 42.6833 612.353
-26.9893 42.7265 613.04
-27.2679 42.752 613.44
-26.7345 43.011 613.215
-27.0128 43.0362 613.607
-26.1868 42.9739 612.618
-26.4568 42.9863 612.828
-26.477 43.2917 613.332
-26.756 43.3182 613.741
-27.3018 43.0779 614.235
-26.2044 43.2752 613.064
-27.0377 43.3488 614.208
-26.5012 43.6041 613.927
-25.9393 43.2709 612.97
-26.226 43.5836 613.604
-25.9578 43.5744 613.442
-26.7794 43.6291 614.313
-27.074 43.6801 615.066
-26.8005 43.9368 614.833
-26.5252 43.9167 614.518
-26.249 43.8949 614.179
-25.9782 43.8817 613.959
-26.2716 44.2059 614.742
-26.5467 44.2256 615.05
-26.8406 44.276 615.786
-26.2941 44.5173 615.304
-25.998 44.1884 614.464
-25.7307 44.1812 614.33
-26.0177 44.4952 614.964
-25.7475 44.4834 614.767
-26.3184 44.8323 615.907
-26.0389 44.8052 615.501
-26.0615 45.1181 616.071
-25.7656 44.7884 615.235
-25.4992 44.7834 615.133
-25.4839 44.4831 614.727
-25.7854 45.0966 615.743
-26.3397 45.1427 616.442
-25.8066 45.408 616.287
-25.5143 45.0838 615.533
-25.5316 45.3883 615.985
-26.0848 45.4326 616.656
-25.5505 45.6962 616.478
-25.2437 45.0715 615.331
-25.2606 45.3756 615.778
-25.8279 45.7197 616.83
-26.1082 45.7479 617.245
-25.2766 45.6786 616.205
-25.5703 46.0061 616.991
-25.2948 45.986 616.686
-25.0229 45.972 616.463
-25.8497 46.033 617.387
-25.3135 46.2946 617.178
-25.5924 46.3207 617.562
-26.1411 46.0805 618.06
-25.0377 46.2737 616.864
-24.768 46.2639 616.698
-25.8785 46.3593 618.111
-25.3357 46.6103 617.758
-25.0579 46.5859 617.399
-24.7852 46.5708 617.163
-25.6196 46.6451 618.254
-25.36 46.9302 618.386
-25.918 46.7055 619.091
-25.0811 46.9043 618.008
-24.8054 46.8837 617.702
-25.6496 46.9753 619.016
-25.1022 47.219 618.564
-24.8263 47.1987 618.261
-25.3861 47.2541 619.06
-24.8458 47.5112 618.783
-25.1244 47.5366 619.15
-25.4133 47.5807 619.76
-24.5589 47.1941 618.166
-24.5749 47.5005 618.607
-24.3078 47.4967 618.522
-24.8658 47.8254 619.32
-25.1478 47.8568 619.763
-24.5896 47.8047 619.016
-24.3212 47.7988 618.903
-25.4399 47.9066 620.445
-24.8863 48.1409 619.869
-25.1695 48.1743 620.335
-24.6064 48.1132 619.475
-24.0662 48.0953 619.172
-24.3342 48.1001 619.271
-24.6229 48.4216 619.928
-24.9051 48.4537 620.375
-24.0764 48.3918 619.474
-25.1917 48.4934 620.921
-24.9237 48.7665 620.876
-24.6396 48.7309 620.387
-24.347 48.4017 619.636
-24.3601 48.704 620.008
-23.8181 48.6831 619.668
-24.0874 48.6903 619.797
-24.3781 49.0165 620.504
-23.8301 48.9841 620.021
-24.6607 49.0494 620.957
-24.3985 49.3344 621.062
-24.6825 49.3697 621.544
-24.1185 49.3066 620.676
-24.1014 48.9949 620.194
-23.845 49.2915 620.449
-24.1371 49.6215 621.193
-23.861 49.6015 620.905
-24.4193 49.6536 621.632
-24.1579 49.9416 621.767
-23.8787 49.9154 621.404
-23.5885 49.5885 620.705
-23.605 49.9003 621.179
-23.8973 50.2317 621.928
-23.6222 50.214 621.672
-23.6391 50.5275 622.157
-23.3506 50.2034 621.504
-23.3671 50.5165 621.983
