0.846198 64.3938 671.482
4.9057 64.08 667.588
5.19414 64.0558 667.292
0.554863 64.4194 671.793
5.48293 64.0382 667.064
5.47789 63.7022 666.659
5.18473 63.3879 666.521
4.88869 62.7597 666.2
0.55681 64.7458 672.079
5.18078 63.0636 666.232
4.88535 62.442 665.977
5.7714 64.0186 666.816
5.76618 63.6827 666.41
5.47297 63.3681 666.268
5.17694 62.741 665.959
4.88285 62.1352 665.868
5.1705 61.835 665.786
5.45949 61.5502 665.871
5.74897 61.2692 665.997
4.5927 56.6162 670.804
4.88463 56.6185 670.789
5.17696 56.6242 670.815
4.88318 56.8804 670.354
-0.31878 64.8107 672.886
-0.904736 64.5288 673.157
-0.61085 64.8174 673.001
-0.903384 64.8533 673.418
-0.0267399 64.7953 672.682
0.265124 64.7656 672.329
0.848361 64.7269 671.838
0.558741 65.0702 672.342
5.17151 62.1232 665.696
5.74941 60.9951 666.245
5.45958 61.8286 665.674
5.74867 61.5444 665.765
6.0385 61.2665 665.924
5.74961 60.7184 666.467
6.03897 60.7119 666.352
6.03957 60.438 666.606
6.04047 60.167 666.894
6.04086 59.8905 667.125
6.03877 60.9895 666.14
6.04107 59.6122 667.337
6.33096 59.8882 667.056
5.75241 59.0705 667.979
6.04159 59.3367 667.583
5.75321 58.7986 668.271
5.17345 57.1452 669.916
5.46421 57.4185 669.581
5.46357 57.692 669.293
5.75437 57.9686 669.003
5.75455 57.6896 669.224
5.75404 58.2461 668.766
6.3314 59.6112 667.284
6.04259 59.0657 667.883
6.33199 59.3353 667.524
5.17442 56.8763 670.264
5.46462 57.1423 669.84
5.75498 57.4127 669.472
6.04506 58.2461 668.724
6.04466 58.5237 668.49
6.04353 58.7939 668.176
6.04529 57.9667 668.938
3.46406 64.5328 669.423
3.17416 64.5547 669.695
3.7541 64.5161 669.205
2.88402 64.5754 669.954
2.59382 64.5991 670.244
4.04369 64.4945 668.936
4.33322 64.4743 668.683
2.30338 64.6215 670.521
2.01272 64.6426 670.785
4.622 64.4466 668.351
1.72195 64.666 671.072
1.43089 64.6846 671.31
4.91066 64.4199 668.03
5.19913 64.3938 667.715
1.13974 64.7073 671.59
5.48767 64.371 667.434
5.77627 64.3511 667.182
6.06449 64.3286 666.905
6.05962 63.9981 666.558
6.0543 63.663 666.16
5.46853 63.0397 665.935
5.17358 62.4244 665.745
0.850454 65.0553 672.143
1.14195 65.0348 671.886
0.266949 65.0939 672.631
5.76099 63.3475 666.009
5.46477 62.7194 665.686
6.35267 64.3078 666.645
6.34739 63.9747 666.271
5.46175 62.4077 665.524
5.46017 62.1126 665.539
5.74857 61.8217 665.556
6.03827 61.5433 665.709
6.32774 61.2607 665.819
5.4657 56.873 670.183
5.75792 56.8791 670.213
-0.0250424 65.1197 672.943
-0.317208 65.1391 673.189
-0.609383 65.1425 673.268
-0.608029 65.4799 673.66
-0.315657 65.4703 673.515
1.43331 65.0156 671.644
0.85252 65.3815 672.423
0.560683 65.3977 672.634
1.14413 65.3615 672.173
5.74885 62.1028 665.391
6.03812 61.8211 665.506
6.32729 61.5366 665.593
6.32822 60.9852 666.05
6.32887 60.7109 666.297
6.32938 60.435 666.53
6.61826 60.7051 666.19
6.33009 60.1611 666.785
6.61918 60.4321 666.455
6.62105 59.8859 666.988
6.62183 59.6111 667.239
6.62004 60.1585 666.714
6.33294 59.0627 667.806
6.62245 59.3345 667.473
5.7558 57.1396 669.766
6.04541 57.6862 669.142
6.33622 57.9649 668.874
6.04595 57.4095 669.392
6.33673 57.687 669.109
6.33587 58.2439 668.656
6.33402 58.791 668.1
6.6233 59.0599 667.732
6.91268 59.3317 667.398
6.04726 57.1396 669.725
6.33728 57.4093 669.348
6.33507 58.5187 668.391
3.75769 64.8465 669.54
3.46737 64.8606 669.73
4.04749 64.826 669.284
3.17738 64.8839 670.015
4.33706 64.8041 669.013
2.88719 64.9065 670.293
2.59685 64.9304 670.585
2.30613 64.9491 670.822
4.62632 64.7808 668.728
4.91517 64.7545 668.411
2.01539 64.9722 671.105
1.72441 64.9929 671.364
5.20394 64.7299 668.113
5.49234 64.7033 667.794
5.78097 64.6817 667.527
6.06924 64.6582 667.24
6.35756 64.6373 666.979
6.64556 64.6149 666.703
6.6401 64.2815 666.328
6.3419 63.6399 665.874
6.04892 63.3277 665.756
6.63497 63.9515 665.984
5.75626 63.0176 665.658
5.75246 62.6981 665.416
1.43568 65.3447 671.954
1.72687 65.32 671.656
0.268787 65.4236 672.945
5.74997 62.393 665.323
6.93328 64.5916 666.419
6.92779 64.2595 666.055
6.03777 62.0965 665.279
6.32713 61.8149 665.395
6.61693 61.255 665.713
6.61762 60.9804 665.954
6.61614 61.5285 665.462
6.047 56.855 669.888
-0.0233419 65.4499 673.261
-0.314068 65.7962 673.786
-0.606674 65.8173 674.047
-0.0216518 65.7794 673.568
-0.312486 66.1221 674.054
0.270622 65.7554 673.278
2.01799 65.2995 671.4
0.854568 65.7073 672.695
1.14635 65.6891 672.464
1.43804 65.6735 672.26
0.56265 65.7264 672.937
1.72939 65.6497 671.972
6.0383 62.3809 665.15
6.32704 62.0939 665.207
6.61574 61.8055 665.251
6.90883 60.4281 666.368
6.90743 60.6978 666.068
6.90662 60.9725 665.825
6.91005 60.1565 666.649
6.91108 59.8831 666.914
6.91181 59.6069 667.149
7.19957 60.1505 666.54
6.62412 58.7847 667.986
6.91343 59.0552 667.635
6.62686 57.9604 668.781
6.62717 57.6801 668.986
6.62641 58.2396 668.564
6.62819 57.4055 669.262
6.6253 58.5125 668.278
6.91447 58.7811 667.902
7.20277 59.3276 667.31
7.20365 59.0514 667.55
7.20162 59.6015 667.046
6.91926 57.4033 669.193
3.76094 65.1712 669.813
4.05098 65.1526 669.577
4.34072 65.1316 669.316
3.47084 65.1922 670.073
4.63041 65.112 669.07
3.18068 65.2148 670.35
4.91948 65.0867 668.765
2.89029 65.2363 670.616
2.59987 65.262 670.925
2.30897 65.2794 671.148
5.20855 65.0637 668.484
5.49696 65.0354 668.149
5.21255 65.3903 668.779
5.78535 65.0092 667.835
6.07419 64.9904 667.597
6.36253 64.9678 667.321
6.65102 64.9488 667.081
6.93901 64.9262 666.805
7.22671 64.9029 666.52
7.22084 64.5685 666.136
6.92219 63.9265 665.68
6.62942 63.6177 665.598
6.33627 63.3037 665.46
6.91693 63.5971 665.338
6.04384 62.9958 665.384
6.3315 62.9768 665.139
7.21512 64.2358 665.766
6.04014 62.6788 665.166
2.02064 65.6287 671.711
2.31183 65.6109 671.484
7.51438 64.8809 666.25
7.50827 64.546 665.86
6.32723 62.3754 665.048
6.61558 62.0846 665.064
6.90585 61.2473 665.586
6.90498 61.521 665.338
6.90452 61.7983 665.13
7.19391 61.5146 665.224
-0.0199403 66.1091 673.876
0.272457 66.0837 673.572
-0.605339 66.1578 674.462
-0.310902 66.4492 674.332
-0.018244 66.4393 674.186
0.56464 66.0595 673.28
0.274297 66.4154 673.898
0.856671 66.037 673.006
2.60288 65.5932 671.259
1.14861 66.0202 672.79
1.4403 65.998 672.518
1.73193 65.98 672.29
2.02331 65.9589 672.03
2.31469 65.9424 671.817
6.3282 62.6646 664.972
6.61546 62.3637 664.88
6.90389 62.0738 664.905
7.19318 61.7903 665.001
7.19805 60.4205 666.241
7.19659 60.6908 665.947
7.19571 60.9657 665.708
7.48591 60.6855 665.845
7.19465 61.2389 665.451
7.2007 59.877 666.802
7.48904 60.1444 666.428
7.49063 59.8737 666.723
7.48733 60.4139 666.124
7.77911 60.1431 666.371
6.91549 58.5064 668.166
7.20437 58.7737 667.776
6.9169 57.9513 668.633
6.91742 57.6719 668.85
6.91642 58.2309 668.421
7.20906 57.3908 669.006
7.20549 58.4991 668.039
7.49266 59.3223 667.207
7.49335 59.0438 667.421
7.49178 59.5991 666.976
7.4942 58.7664 667.65
7.78187 59.5963 666.902
7.20816 57.6681 668.763
4.05451 65.4802 669.878
3.76454 65.5025 670.151
4.34426 65.4571 669.597
4.63412 65.4384 669.36
4.92345 65.4145 669.072
3.47444 65.5261 670.437
3.18399 65.5458 670.684
5.50171 65.3691 668.517
2.89366 65.5726 671.002
5.79004 65.3405 668.18
6.07879 65.3189 667.914
5.5062 65.7001 668.855
5.21679 65.7201 669.103
5.79483 65.6731 668.535
4.92736 65.7421 669.372
6.36726 65.2962 667.637
6.65566 65.2748 667.374
6.94438 65.2579 667.156
7.23247 65.2364 666.893
7.52021 65.2136 666.614
7.80757 65.1891 666.32
7.8014 64.855 665.939
7.79552 64.5235 665.583
7.20917 63.9015 665.375
7.50184 64.2088 665.441
6.62376 63.2832 665.2
6.91105 63.2624 664.938
6.6193 62.9605 664.923
7.20324 63.5675 664.985
7.49551 63.8726 665.031
6.61641 62.653 664.805
2.6059 65.9253 671.597
2.89701 65.9086 671.383
8.09446 65.1625 666.003
8.08864 64.8326 665.665
8.0832 64.506 665.358
6.90375 62.3534 664.726
7.484 61.2356 665.372
7.48313 61.5111 665.144
7.19281 62.0688 664.808
7.48215 61.7854 664.905
7.77276 61.5107 665.096
0.566662 66.3943 673.639
0.858865 66.3739 673.387
-0.603808 66.4785 674.674
-0.309325 66.7785 674.629
-0.602313 66.8028 674.919
-0.0165407 66.7662 674.459
0.276135 66.7473 674.222
0.568641 66.7256 673.959
1.15095 66.3556 673.156
0.861013 66.7071 673.726
1.44272 66.3296 672.847
3.18745 65.8807 671.054
1.73446 66.3105 672.607
2.02602 66.2909 672.364
2.31749 66.2728 672.135
2.60876 66.2533 671.893
2.9001 66.2386 671.698
6.90425 62.6388 664.611
7.19255 62.3481 664.626
7.48155 62.0627 664.7
7.77168 61.7852 664.858
7.77741 60.4138 666.08
7.48477 60.9592 665.593
7.77557 60.683 665.775
7.77434 60.9568 665.524
8.06589 60.6856 665.761
7.77344 61.2331 665.302
7.78078 59.872 666.661
8.06903 60.1409 666.304
8.07051 59.8674 666.567
8.06751 60.4137 666.036
8.35912 60.1398 666.249
7.20628 58.2215 668.271
7.49518 58.4897 667.89
7.78454 58.7632 667.571
7.20696 57.9427 668.492
7.49707 57.9352 668.363
7.49638 58.2146 668.149
7.78261 59.3176 667.112
7.78345 59.0396 667.331
8.07295 59.316 667.051
8.07366 59.0362 667.251
8.07183 59.5926 666.817
7.7853 58.4841 667.783
8.07439 58.7564 667.452
4.34784 65.7836 669.885
4.05817 65.8102 670.201
4.63752 65.7606 669.605
3.76809 65.833 670.478
3.47795 65.8586 670.783
6.08326 65.6463 668.217
6.37204 65.6255 667.96
6.66055 65.6036 667.693
5.79953 66.0049 668.879
5.51031 66.0269 669.146
6.08834 65.9806 668.587
5.22096 66.0492 669.418
4.93137 66.0709 669.682
6.37751 65.9619 668.353
4.64131 66.0884 669.905
6.94927 65.5853 667.462
7.23778 65.5664 667.224
7.52561 65.543 666.941
7.81351 65.5217 666.68
8.10098 65.4984 666.398
8.38846 65.4766 666.132
8.38223 65.1443 665.773
7.78897 64.1868 665.169
8.37605 64.8129 665.418
8.36998 64.4825 665.071
7.78292 63.8546 664.798
8.07663 64.1706 664.957
6.90655 62.9405 664.668
7.19773 63.2376 664.633
7.19416 62.925 664.461
7.48971 63.5415 664.668
7.48535 63.2226 664.432
7.77734 63.5265 664.467
3.19074 66.2123 671.386
3.48112 66.1851 671.066
8.67689 65.4632 665.951
8.67021 65.1289 665.57
8.66369 64.796 665.2
7.19303 62.6338 664.514
8.06304 61.2317 665.243
8.0622 61.509 665.034
7.48138 62.3435 664.533
7.77059 62.0593 664.619
8.06082 61.7819 664.78
1.15321 66.6869 673.477
1.44517 66.6625 673.185
-0.307751 67.1069 674.914
-0.600838 67.1289 675.181
-0.0148357 67.0962 674.761
0.277992 67.0787 674.539
-0.306174 67.4371 675.215
0.570593 67.054 674.246
0.863109 67.0358 674.018
1.15535 67.0113 673.726
1.73693 66.6389 672.901
1.44753 66.9924 673.49
2.02869 66.6214 672.679
3.77163 66.1636 670.803
3.4844 66.5137 671.366
2.32017 66.5995 672.413
2.61159 66.5811 672.182
2.90292 66.5634 671.958
3.1939 66.5414 671.691
7.48134 62.6252 664.379
7.76966 62.3346 664.394
8.05933 62.0537 664.516
8.35783 60.4151 666.008
8.06433 60.9578 665.491
8.35579 60.6849 665.71
8.35405 60.9567 665.436
8.64596 60.686 665.678
8.35277 61.2315 665.198
8.36062 59.8656 666.504
8.64957 60.1411 666.22
8.36163 59.5878 666.721
8.65063 59.8631 666.434
8.64817 60.4165 665.98
8.93935 60.1377 666.14
7.78572 58.2022 667.966
8.07493 58.4752 667.639
7.78635 57.9219 668.167
8.0759 57.9113 668.003
8.36265 59.3098 666.939
8.36348 59.0304 667.143
8.36437 58.7511 667.35
8.0751 58.1911 667.795
8.36447 58.4662 667.494
8.65462 58.7478 667.269
4.35163 66.1135 670.205
4.06176 66.1392 670.51
6.66577 65.9358 668.044
6.95428 65.9141 667.778
7.24294 65.8953 667.543
6.09335 66.3144 668.949
5.80409 66.3355 669.207
6.38257 66.2945 668.703
5.51454 66.3553 669.452
5.22523 66.3799 669.745
6.67151 66.2736 668.448
4.93525 66.3985 669.978
4.64535 66.4199 670.239
6.9599 66.2489 668.154
7.53119 65.8742 667.285
7.81943 65.8545 667.04
8.10718 65.832 666.768
8.39515 65.8128 666.528
8.68343 65.7969 666.323
8.97231 65.7865 666.172
8.96567 65.4533 665.806
8.95881 65.1189 665.423
8.3634 64.1485 664.684
8.95136 64.7805 664.997
8.65676 64.4606 664.8
8.94431 64.4454 664.6
8.06988 63.8342 664.542
8.06416 63.5063 664.212
7.48234 62.9155 664.316
7.77289 63.2078 664.232
7.77026 62.9042 664.153
8.06033 63.1934 664.036
8.35653 63.8127 664.274
3.77518 66.4947 671.13
4.06557 66.472 670.855
9.25486 65.4467 665.693
9.26168 65.7799 666.061
9.24714 65.1074 665.261
9.23916 64.7667 664.81
8.35154 61.5065 664.964
8.34953 61.7756 664.668
7.76944 62.6152 664.228
8.05814 62.3277 664.278
8.34785 62.0468 664.398
1.73939 66.9674 673.194
2.03126 66.9492 672.965
-0.0131327 67.4252 675.05
0.27982 67.4094 674.847
-0.59939 67.4586 675.476
-0.304559 67.7609 675.45
0.572556 67.3835 674.542
0.86521 67.3657 674.318
-0.0114117 67.7509 675.304
0.281638 67.7335 675.085
-0.597901 67.7845 675.731
1.15762 67.3432 674.047
1.44987 67.3212 673.781
1.74182 67.2946 673.47
2.32296 66.9299 672.726
2.0338 67.2757 673.235
2.61451 66.9111 672.491
4.35576 66.4489 670.576
3.77875 66.8264 671.459
3.48779 66.8447 671.689
4.06931 66.8041 671.19
2.90586 66.8906 672.241
3.19708 66.8711 671.999
8.05782 62.6081 664.11
8.34673 62.322 664.173
8.63716 62.0458 664.343
8.6436 60.9542 665.365
8.64161 61.2247 665.08
8.93545 60.6823 665.594
8.93756 60.4112 665.879
8.93311 60.9514 665.292
8.63998 61.4976 664.823
8.6515 59.5837 666.633
8.94084 59.862 666.378
8.65258 59.3056 666.848
8.94169 59.5819 666.57
9.22882 60.1324 666.038
9.22681 60.4052 665.77
9.51832 60.1275 665.941
8.36435 58.1797 667.622
8.65464 58.4619 667.403
8.65365 59.0271 667.062
8.943 59.3046 666.795
8.94395 59.0248 666.994
8.94458 58.7427 667.168
8.65386 58.1706 667.475
8.94424 58.4541 667.271
7.24855 66.2284 667.902
7.53672 66.2052 667.622
7.82467 66.1817 667.341
6.38767 66.628 669.059
6.09838 66.6488 669.313
6.67685 66.6077 668.811
5.8087 66.667 669.542
5.51902 66.6869 669.787
6.96537 66.5827 668.514
5.22945 66.7104 670.067
4.93931 66.7286 670.296
7.25356 66.5565 668.206
4.64954 66.7541 670.597
7.54205 66.5348 667.943
8.11298 66.1627 667.103
8.40116 66.1438 666.868
8.68951 66.1273 666.657
8.9784 66.1159 666.497
9.26794 66.1094 666.387
9.55206 65.7807 666.023
9.54403 65.4402 665.583
8.64989 64.1257 664.403
9.5345 65.0899 665.037
9.23123 64.4266 664.362
8.9372 64.1102 664.198
9.52561 64.7444 664.537
8.35115 63.4885 663.982
8.34806 63.1819 663.872
8.05813 62.8934 663.996
8.64375 63.7967 664.064
8.34647 62.8867 663.881
8.63894 63.4777 663.825
4.3596 66.7801 670.904
9.83241 65.4287 665.421
9.55821 66.1086 666.333
9.82128 65.0695 664.784
8.63852 61.7714 664.579
8.34617 62.6012 663.993
8.63556 62.3182 664.089
8.92614 62.0425 664.264
2.32563 67.2569 673.002
2.61751 67.2433 672.82
0.574538 67.7143 674.849
0.867312 67.6965 674.625
-0.302962 68.0871 675.706
-0.596323 68.1005 675.884
-0.0097053 68.078 675.57
0.283461 68.0613 675.359
1.15991 67.6773 674.388
1.45214 67.6472 674.043
0.576496 68.044 675.141
0.869368 68.0233 674.89
-0.889971 68.1284 676.208
-0.594726 68.4153 676.025
-0.301343 68.4099 675.926
1.74426 67.6222 673.748
2.03625 67.6001 673.483
2.32835 67.5856 673.292
2.90894 67.2216 672.558
2.62033 67.5713 673.104
3.20015 67.1989 672.285
4.07287 67.1335 671.495
3.78218 67.1559 671.765
4.36326 67.1089 671.204
3.49123 67.177 672.02
4.65363 67.0872 670.941
8.63473 62.596 663.894
8.92501 62.3189 664.053
8.92717 61.7652 664.469
8.93052 61.2188 664.972
8.92855 61.49 664.698
9.22449 60.6756 665.478
9.22192 60.9443 665.17
9.21955 61.2138 664.875
9.2178 61.4873 664.626
9.23213 59.5817 666.525
9.23317 59.302 666.723
9.52299 59.2973 666.627
9.51631 60.401 665.68
9.80732 60.1197 665.811
9.80942 59.8459 666.07
9.51384 60.6713 665.387
9.8054 60.3944 665.564
10.096 60.1102 665.663
10.0987 59.8392 665.952
8.94304 58.1598 667.31
9.23377 59.0194 666.89
9.23366 58.7322 667.006
9.23313 58.4421 667.091
7.8301 66.5108 667.657
8.11874 66.4932 667.435
8.40723 66.4758 667.215
6.68164 66.9368 669.12
6.39253 66.9592 669.389
6.97031 66.9117 668.824
6.10309 66.9799 669.642
5.81309 66.9963 669.85
7.2587 66.8859 668.521
5.52321 67.0157 670.09
5.23332 67.0366 670.344
7.54716 66.8627 668.244
7.26333 67.211 668.79
4.94338 67.0592 670.615
7.83559 66.8408 667.979
8.12412 66.8211 667.737
8.69556 66.4578 666.99
8.98448 66.4455 666.821
9.27387 66.437 666.69
9.564 66.4342 666.617
10.1183 65.4016 665.101
8.93076 63.7802 663.847
9.51772 64.4061 664.105
9.22377 64.0903 663.948
9.81168 64.7208 664.25
9.21768 63.7638 663.633
10.107 65.0435 664.475
8.63598 63.1724 663.728
8.92654 63.4661 663.659
8.63469 62.8795 663.761
8.92393 63.1637 663.592
10.4156 65.7339 665.415
10.4029 65.3683 664.717
9.56987 66.7605 666.906
9.21623 61.7618 664.389
8.92386 62.5951 663.84
9.21357 62.3136 663.952
9.21487 62.0375 664.168
2.91216 67.5559 672.906
3.20332 67.5289 672.591
1.16211 68.0057 674.67
1.4545 67.9767 674.337
-0.0079882 68.4022 675.804
0.285299 68.3906 675.644
-0.88833 68.4346 676.262
0.578466 68.373 675.424
1.4568 68.3043 674.608
1.74676 67.9529 674.055
2.03883 67.9288 673.77
0.871409 68.3485 675.137
1.16425 68.33 674.908
-0.593282 68.747 676.332
-0.299712 68.7304 676.123
-0.0062748 68.7208 675.982
2.33102 67.9135 673.572
2.62316 67.8999 673.392
2.91518 67.8857 673.205
3.49445 67.5054 672.312
3.20631 67.8552 672.857
3.7855 67.4837 672.049
3.49741 67.8287 672.549
4.36673 67.435 671.474
4.0764 67.4625 671.793
4.65746 67.4165 671.245
4.94743 67.3897 670.932
5.23696 67.3598 670.589
8.92301 62.8733 663.651
9.21246 62.5905 663.748
9.50539 61.7593 664.319
9.50891 61.2112 664.804
9.50698 61.4843 664.549
9.51115 60.9399 665.08
9.80345 60.6687 665.315
9.80102 60.9398 665.035
9.79829 61.2087 664.733
9.79635 61.4824 664.486
9.5229 59.01 666.741
9.8121 59.0014 666.602
9.52271 58.722 666.848
10.1012 59.2798 666.344
10.0941 60.3855 665.423
10.3851 60.104 665.552
10.3874 59.83 665.808
10.389 59.5518 666.019
10.0926 60.6632 665.212
10.3829 60.3782 665.3
10.6735 60.0936 665.393
10.6755 59.8175 665.625
10.6768 59.5371 665.811
9.52217 58.4316 666.93
8.4133 66.8079 667.56
8.70178 66.7899 667.336
8.99015 66.7723 667.114
6.68603 67.2619 669.387
6.97502 67.2387 669.112
6.39683 67.2847 669.659
6.10731 67.306 669.917
7.55179 67.1865 668.501
5.81702 67.3205 670.107
5.527 67.3393 670.339
7.84071 67.1678 668.27
8.12976 67.1514 668.061
7.55677 67.5139 668.791
7.26822 67.5386 669.082
7.84634 67.4994 668.603
8.41899 67.1373 667.875
8.70757 67.119 667.648
9.27959 66.7632 666.978
9.57494 67.0816 667.14
10.6996 65.6962 664.989
10.6878 65.3382 664.367
9.21364 63.4517 663.464
9.51023 64.0709 663.702
9.80374 64.3834 663.827
10.0969 64.6928 663.918
9.50444 63.7473 663.416
10.3915 65.011 664.098
9.5008 63.4385 663.283
9.21202 63.1563 663.47
9.2119 62.8711 663.584
10.7107 66.0512 665.576
10.9958 66.0205 665.221
11.0044 66.3589 665.636
10.9861 65.6758 664.737
10.7185 66.3855 665.949
10.9756 65.3265 664.203
9.28493 67.0869 667.239
9.57943 67.3988 667.333
9.87021 67.3981 667.282
9.50392 62.0349 664.096
9.7945 61.7565 664.244
9.50206 62.3079 663.848
9.50098 62.5856 663.652
9.79255 62.0296 663.996
3.50012 68.1479 672.744
3.78852 67.8065 672.283
1.74926 68.2831 674.353
2.04147 68.2593 674.072
0.287102 68.7113 675.842
0.580349 68.6938 675.624
0.873475 68.6771 675.414
0.875377 68.9918 675.554
1.75156 68.6061 674.578
1.45913 68.6335 674.893
1.16635 68.6538 675.14
2.04403 68.5877 674.352
2.33378 68.2437 673.872
2.62582 68.2242 673.634
2.91774 68.2052 673.401
3.20903 68.1761 673.068
3.2117 68.4962 673.269
4.0796 67.7863 672.037
3.50303 68.4706 672.971
4.37029 67.7627 671.758
3.79141 68.1268 672.49
4.08272 68.1091 672.269
4.66075 67.7384 671.471
4.95101 67.7141 671.185
4.95437 68.0359 671.41
5.24053 67.6826 670.827
5.2441 68.0055 671.064
5.53064 67.6616 670.573
5.82071 67.642 670.334
5.53416 67.9825 670.792
9.49993 62.8634 663.46
10.088 61.2085 664.687
10.0858 61.481 664.427
10.0904 60.9369 664.96
10.3771 61.2044 664.6
10.0833 61.7519 664.152
9.81054 58.7049 666.612
10.1001 58.9861 666.385
10.0977 58.6847 666.34
10.3893 59.2663 666.15
10.388 58.9713 666.176
10.381 60.654 665.069
10.6718 60.3712 665.179
10.6772 59.2519 665.945
10.3793 60.9307 664.849
10.67 60.6481 664.961
10.9606 60.3644 665.062
10.9622 60.0855 665.26
10.9632 59.8033 665.424
11.2511 60.0786 665.141
10.9643 59.5217 665.596
10.964 59.2321 665.68
10.6757 58.956 665.961
8.9958 67.0992 667.406
6.97987 67.5674 669.412
6.69063 67.5894 669.676
6.40113 67.6104 669.93
6.11077 67.624 670.109
8.13553 67.4828 668.393
8.42433 67.4642 668.163
8.71276 67.4437 667.914
7.85171 67.8291 668.914
7.56248 67.8479 669.144
8.14147 67.8161 668.74
7.27345 67.8697 669.405
8.42987 67.7929 668.466
9.00093 67.4225 667.659
9.28934 67.4042 667.433
9.58406 67.7171 667.536
11.2836 66.0065 665.035
11.2744 65.6663 664.596
11.265 65.3251 664.144
10.6777 64.9906 663.845
9.49971 63.1467 663.326
9.79636 64.0502 663.444
10.0887 64.3551 663.491
9.79078 63.729 663.182
10.382 64.6657 663.596
9.7881 63.4267 663.115
10.9654 64.9796 663.688
9.78739 63.1373 663.183
11.2909 66.3365 665.367
11.0114 66.688 665.956
11.2981 66.6657 665.688
11.5723 65.9985 664.91
11.5791 66.325 665.207
11.5858 66.6507 665.494
11.564 65.6648 664.536
11.0178 67.0137 666.239
11.3049 66.9933 665.991
11.5535 65.3181 664.029
9.87453 67.7138 667.458
9.29447 67.7268 667.678
10.1645 67.7075 667.351
10.454 67.6981 667.213
9.8784 68.0264 667.604
9.79088 62.3043 663.766
10.0814 62.0257 663.911
9.78942 62.5803 663.552
10.0793 62.2987 663.663
9.78802 62.8564 663.341
10.3702 62.0223 663.83
3.79457 68.4523 672.746
4.08588 68.4326 672.507
4.37386 68.0906 672.041
2.33642 68.5707 674.138
2.62856 68.5509 673.898
1.16849 68.9786 675.378
1.46149 68.9638 675.187
1.46375 69.29 675.438
1.75394 68.9329 674.839
2.04651 68.9135 674.603
2.33894 68.8945 674.371
1.75618 69.2533 675.034
2.63118 68.8746 674.13
2.92022 68.5228 673.576
3.21452 68.8194 673.498
3.50611 68.7971 673.234
2.92278 68.8427 673.772
4.66422 68.0631 671.724
3.79782 68.7797 673.018
4.08929 68.7607 672.786
4.37752 68.4205 672.341
4.6681 68.394 672.036
4.95795 68.3606 671.661
5.24798 68.3328 671.342
5.53849 68.3136 671.108
5.82472 67.9674 670.597
5.82919 68.2984 670.914
6.11468 67.947 670.35
6.40527 67.9346 670.182
6.11913 68.2762 670.649
10.3744 61.4749 664.317
10.3721 61.7472 664.057
10.6655 61.1965 664.47
10.6677 60.9221 664.712
10.6631 61.4693 664.214
10.385 58.6667 666.093
10.9589 60.6422 664.853
11.2498 60.3598 664.967
10.9619 58.9333 665.661
10.957 60.9187 664.632
11.2482 60.6387 664.771
11.5389 60.3547 664.869
11.2512 59.7914 665.249
11.5393 60.0686 664.987
11.2511 59.5033 665.347
11.5392 59.7802 665.082
11.25 59.2092 665.381
6.98434 67.8926 669.677
6.69528 67.9176 669.969
8.71828 67.7711 668.205
9.00619 67.747 667.922
8.14686 68.1451 669.042
7.85763 68.1638 669.272
8.43538 68.1217 668.767
7.56823 68.1826 669.501
8.72319 68.0941 668.45
7.27872 68.2014 669.732
6.98914 68.2212 669.972
9.0116 68.0728 668.196
9.58868 68.0355 667.738
9.29996 68.0522 667.948
11.8678 66.3165 665.076
11.2537 64.9729 663.575
11.839 65.295 663.749
10.0816 64.025 663.139
10.0774 63.7135 662.977
10.3732 64.3257 663.144
10.3669 64.0014 662.85
10.0758 63.4179 662.979
10.076 63.134 663.105
11.5398 64.954 663.337
10.0764 62.8513 663.244
11.8739 66.6381 665.322
11.593 66.979 665.804
11.312 67.3222 666.303
11.8807 66.964 665.609
12.1549 66.3 664.866
12.1618 66.625 665.146
12.1686 66.9502 665.426
12.1367 65.6258 664.053
11.0241 67.3389 666.514
11.5996 67.3047 666.085
10.7373 67.3632 666.8
11.317 67.6394 666.498
11.8878 67.2914 665.908
10.1681 68.0178 667.473
10.4568 68.0026 667.279
10.1715 68.3267 667.581
10.7416 67.6771 666.96
10.7452 67.9867 667.077
10.4602 68.3114 667.386
9.88271 68.3422 667.778
9.59378 68.3575 667.974
10.0774 62.5726 663.427
10.368 62.2951 663.58
10.6587 62.0168 663.728
10.3662 62.5696 663.351
10.6569 62.2923 663.507
10.3646 62.846 663.144
10.6608 61.7425 663.964
4.38077 68.7438 672.575
4.67193 68.7245 672.34
2.05103 69.5506 674.958
2.04882 69.2338 674.798
2.34135 69.215 674.569
2.34379 69.5366 674.776
2.63362 69.1933 674.311
2.9255 69.1664 674.003
2.9283 69.4922 674.253
3.21734 69.143 673.729
3.50928 69.1255 673.513
3.801 69.1059 673.276
4.09258 69.0869 673.045
4.38386 69.0652 672.787
4.96198 68.6918 671.974
4.9657 69.019 672.245
5.25211 68.6634 671.651
5.5426 68.6424 671.399
5.25598 68.9909 671.926
5.83329 68.6256 671.189
6.12366 68.6065 670.957
6.40926 68.2576 670.421
6.41343 68.5827 670.678
6.69956 68.2424 670.226
6.70376 68.5666 670.475
10.9496 61.7379 663.871
10.9547 61.1928 664.387
10.9519 61.4641 664.113
11.2437 61.1888 664.3
11.2461 60.9146 664.544
11.2411 61.4615 664.043
11.5379 60.6369 664.708
11.8278 60.3486 664.758
11.5355 60.9123 664.476
11.8267 60.6309 664.599
11.8281 60.0618 664.869
11.5383 59.4877 665.13
11.8273 59.7696 664.92
11.8259 59.4747 664.943
8.44055 68.4479 669.039
8.15208 68.4728 669.329
7.86274 68.4918 669.561
8.7285 68.4204 668.726
7.57328 68.5112 669.796
9.01691 68.3981 668.462
7.2832 68.526 669.987
9.30543 68.3779 668.218
6.99349 68.5456 670.224
12.4481 66.6038 664.89
11.823 64.9201 662.946
12.1208 65.2534 663.282
12.4179 65.5808 663.552
10.3644 63.701 662.803
10.3639 63.4124 662.877
10.6533 63.9858 662.644
10.9459 64.2928 662.716
10.651 63.6867 662.609
10.364 63.1275 662.992
11.5259 64.5897 662.638
12.1059 64.8865 662.56
10.6531 62.8416 663.054
12.1753 67.2748 665.698
11.6059 67.6291 666.351
11.0291 67.6569 666.716
11.894 67.6142 666.159
12.4405 66.2755 664.575
12.7338 66.5806 664.613
12.4555 66.9316 665.196
12.4627 67.2582 665.488
12.7491 67.237 665.233
12.4306 65.9353 664.138
12.7111 65.8871 663.608
12.7228 66.2355 664.13
11.3215 67.9535 666.661
12.1817 67.598 665.954
11.0328 67.9664 666.833
11.6109 67.9458 666.539
11.8999 67.9355 666.393
10.7481 68.2918 667.149
10.176 68.6437 667.767
10.4644 68.6257 667.546
9.88735 68.6605 667.977
11.0367 68.2777 666.966
10.7525 68.6066 667.315
9.59953 68.6844 668.255
10.6547 62.5656 663.264
10.9453 62.287 663.407
10.9476 62.0132 663.646
11.2361 62.0082 663.549
10.9431 62.5603 663.166
10.6517 63.1192 662.862
11.2387 61.7355 663.801
4.67523 69.0473 672.567
4.67802 69.3628 672.721
4.9691 69.342 672.474
2.63842 69.8299 674.662
2.63617 69.5155 674.526
2.93082 69.8113 674.436
3.22016 69.4669 673.961
3.22263 69.7831 674.117
3.22446 70.0856 674.14
3.5122 69.4489 673.741
3.8038 69.4255 673.468
3.80639 69.7414 673.623
4.09545 69.4062 673.234
4.09792 69.7187 673.356
4.38672 69.3829 672.962
5.54692 68.9739 671.714
5.25975 69.3173 672.188
5.551 69.3026 671.999
5.26338 69.642 672.432
5.83755 68.9546 671.48
6.12806 68.9357 671.25
5.84186 69.2845 671.778
6.41778 68.9098 670.953
6.7078 68.8892 670.706
6.99805 68.8724 670.496
11.5279 61.734 663.742
11.5327 61.1848 664.213
11.5301 61.4581 663.963
11.822 61.1822 664.141
11.8248 60.9091 664.397
11.8194 61.4564 663.9
12.1167 60.3429 664.653
12.1165 60.0534 664.733
12.1156 60.6254 664.496
12.1133 60.9021 664.278
12.1159 59.7622 664.795
12.1144 59.4663 664.805
12.4015 59.4522 664.605
8.44552 68.7729 669.298
8.7336 68.7453 668.985
8.15636 68.7929 669.539
9.02204 68.7223 668.715
7.86728 68.8151 669.802
7.57772 68.8345 670.036
9.31099 68.7043 668.493
7.28768 68.8508 670.24
12.7419 66.911 664.947
13.0272 66.8858 664.651
12.4027 65.2135 662.831
11.8099 64.5622 662.311
12.3894 64.8568 662.212
12.6976 65.5299 662.993
12.9919 65.8426 663.115
13.0054 66.1984 663.712
10.6509 63.4003 662.707
10.9404 63.9751 662.489
10.9382 63.6761 662.456
11.2276 63.9651 662.342
11.2321 64.2763 662.502
10.9382 63.3905 662.561
11.5171 64.2544 662.231
11.8033 64.2398 662.037
11.5147 63.9549 662.191
12.0955 64.5444 662.084
12.6847 65.1763 662.408
12.6743 64.8361 661.955
10.9411 62.8354 662.944
10.9392 63.1105 662.726
12.4695 67.5827 665.758
12.1875 67.918 666.176
13.0176 66.5485 664.248
13.3123 66.8607 664.357
13.0345 67.2114 664.935
12.7554 67.5585 665.474
13.0413 67.5347 665.194
13.3275 67.5134 664.939
13.2876 66.1613 663.296
13.3015 66.5183 663.901
11.3255 68.265 666.796
11.6154 68.2595 666.697
12.4747 67.8991 665.945
11.9053 68.2545 666.602
12.1937 68.2405 666.42
11.0413 68.5935 667.141
10.1818 68.969 668.032
10.4697 68.9472 667.774
10.7578 68.9279 667.541
9.89371 68.9909 668.29
11.3309 68.585 667.013
11.0465 68.9129 667.351
9.60586 69.0157 668.576
11.2337 62.2814 663.304
11.2313 62.5549 663.064
11.5229 62.281 663.255
11.5254 62.0077 663.499
11.8146 62.0062 663.439
11.229 62.8284 662.827
11.5201 62.5525 662.995
11.8171 61.7317 663.674
4.97233 69.6627 672.677
4.68095 69.6804 672.894
4.38965 69.7017 673.147
5.5547 69.6268 672.239
3.51476 69.7656 673.903
3.51686 70.0732 673.975
3.80897 70.0572 673.774
3.81124 70.3674 673.871
4.10056 70.0343 673.508
4.39238 70.0177 673.302
4.39428 70.3205 673.33
4.68384 69.9977 673.063
6.1323 69.2633 671.527
5.84548 69.6066 671.998
5.26672 69.9632 672.639
5.5579 69.945 672.419
4.97548 69.9825 672.871
5.84909 69.9286 672.214
6.4222 69.2379 671.234
6.71241 69.218 670.995
6.13585 69.5834 671.728
7.00281 69.2014 670.788
7.29254 69.1794 670.529
12.1112 61.1794 664.067
12.1089 61.4555 663.847
12.4005 61.1771 663.999
12.1058 61.7275 663.585
12.3982 61.4534 663.781
12.4049 60.3339 664.51
12.4051 60.0466 664.614
12.4041 60.6183 664.375
12.4039 59.7522 664.641
12.4025 60.8989 664.199
12.6914 60.8939 664.102
12.689 59.4399 664.425
12.6916 59.7408 664.472
12.9773 59.432 664.293
12.6933 60.0375 664.47
8.45027 69.0962 669.539
8.73905 69.0732 669.27
8.16097 69.1161 669.777
9.02757 69.0497 668.997
9.31702 69.0344 668.803
7.87174 69.1378 670.034
7.58208 69.1574 670.27
13.3204 67.1895 664.673
13.608 67.1768 664.503
12.9792 65.4906 662.55
12.0898 64.2273 661.864
12.381 64.5265 661.857
12.9682 65.1481 662.077
12.6672 64.5132 661.676
13.2743 65.8076 662.717
13.571 66.1311 662.947
13.5857 66.4909 663.582
11.2263 63.6715 662.363
11.2263 63.3857 662.466
11.514 63.665 662.252
11.2272 63.1046 662.62
11.8009 63.9405 661.998
12.0881 63.9318 661.864
11.8011 63.6549 662.102
12.3768 64.2177 661.72
11.5142 63.3796 662.359
13.2622 65.4601 662.197
12.9591 64.8155 661.701
12.954 64.5028 661.525
13.2511 65.1183 661.73
11.5177 62.8258 662.755
11.5155 63.1005 662.533
12.7619 67.8811 665.723
12.4804 68.2185 666.16
13.5986 66.8422 664.128
13.8948 67.1607 664.297
13.6159 67.5042 664.802
13.0478 67.8565 665.436
13.335 67.8401 665.229
13.6227 67.8266 665.051
13.9033 67.4907 664.624
13.9112 67.8177 664.919
13.8694 66.4619 663.248
13.8537 66.0988 662.579
13.8842 66.8213 663.874
11.621 68.5799 666.918
11.9116 68.5783 666.856
12.7672 68.1973 665.906
12.2002 68.5651 666.682
12.487 68.5428 666.42
11.3369 68.9085 667.262
10.4762 69.2769 668.079
10.1883 69.3001 668.349
10.7638 69.2531 667.805
11.0526 69.238 667.613
11.3432 69.2348 667.536
9.90054 69.3249 668.635
11.6277 68.9074 667.206
9.61191 69.3452 668.876
9.32224 69.3589 669.054
11.8119 62.2789 663.19
11.8091 62.551 662.936
12.1026 61.9985 663.314
12.0999 62.2723 663.075
11.8061 62.8224 662.676
12.0974 62.5464 662.843
4.68625 70.308 673.164
4.10298 70.3463 673.623
4.97792 70.2923 672.967
4.98027 70.6012 673.054
6.4262 69.5619 671.474
6.42996 69.8834 671.687
6.13951 69.9047 671.939
5.26982 70.2812 672.815
5.5611 70.2633 672.597
5.56391 70.5769 672.729
5.85234 70.2464 672.389
5.8548 70.5551 672.475
6.14315 70.2263 672.15
6.71636 69.5402 671.218
7.00716 69.5264 671.039
7.2972 69.5064 670.799
7.58692 69.4848 670.545
12.6902 61.1766 663.951
12.395 61.7256 663.521
12.6881 61.4548 663.752
12.9798 61.1757 663.898
12.3911 61.994 663.222
12.6849 61.7273 663.495
12.9782 61.4565 663.727
12.6935 60.327 664.391
12.6927 60.6118 664.26
12.9818 60.6081 664.177
12.9811 60.893 664.048
13.2709 60.8927 664.001
12.98 59.7332 664.344
13.2665 59.4284 664.211
12.9815 60.0291 664.335
13.269 59.7288 664.252
13.5556 59.4247 664.127
13.2703 60.0236 664.231
12.9821 60.3207 664.278
8.45522 69.4213 669.794
8.74457 69.4019 669.561
8.16593 69.4423 670.044
9.03337 69.3795 669.299
7.8767 69.4652 670.31
14.1888 67.4679 664.355
13.5569 65.7748 662.343
13.5452 65.4306 661.854
12.3757 63.9253 661.753
12.0886 63.6479 661.985
12.664 64.2099 661.596
13.2438 64.7951 661.448
12.9515 64.2035 661.486
12.6634 63.9198 661.651
13.8406 65.7486 662.034
14.1519 66.4286 662.87
14.1372 66.0718 662.263
14.1662 66.7841 663.46
11.8023 63.3752 662.268
11.8039 63.0974 662.456
12.376 63.6404 661.863
12.0899 63.368 662.149
13.2398 64.4883 661.332
13.2385 64.1952 661.356
12.9512 63.9152 661.56
13.5351 65.0947 661.445
13.529 64.7781 661.23
13.8285 65.404 661.54
12.0947 62.8196 662.602
12.0922 63.0935 662.372
13.0545 68.1801 665.693
13.3419 68.1637 665.487
12.7732 68.5177 666.13
14.1791 67.1336 663.984
14.1977 67.7991 664.691
13.6302 68.1525 665.333
13.9187 68.1428 665.192
14.2053 68.1241 664.965
14.4483 66.7487 663.063
14.4337 66.393 662.471
14.4202 66.0431 661.931
14.4611 67.0962 663.57
11.918 68.9031 667.119
12.2071 68.8922 666.967
13.0606 68.5004 665.916
13.3487 68.4872 665.742
12.4941 68.8699 666.705
12.7798 68.8416 666.385
13.0666 68.8206 666.136
11.634 69.2326 667.469
10.7705 69.5832 668.112
10.4834 69.6113 668.428
11.0589 69.5651 667.892
10.1952 69.6331 668.683
11.3487 69.556 667.759
11.64 69.5558 667.711
11.9245 69.2289 667.388
9.90696 69.6563 668.952
9.6176 69.6724 669.153
9.32823 69.6892 669.36
12.388 62.2658 662.963
12.6813 61.9972 663.213
12.3854 62.5398 662.729
12.6774 62.2662 662.923
12.383 62.8153 662.513
5.2727 70.5966 672.964
5.56734 70.8985 672.937
6.72018 69.8612 671.427
7.01076 69.8444 671.22
6.43366 70.2043 671.894
6.72417 70.1842 671.654
7.01503 70.169 671.463
5.85685 70.8588 672.514
6.14626 70.5417 672.301
6.1482 70.8438 672.325
6.43745 70.5264 672.109
7.30167 69.8318 671.053
7.59164 69.8114 670.811
7.88133 69.7898 670.557
8.17133 69.7724 670.344
13.2699 61.1767 663.865
12.9752 61.7302 663.484
13.2681 61.4569 663.689
13.5594 61.1753 663.806
12.9708 61.9977 663.174
13.2646 61.7295 663.432
13.2711 60.6048 664.097
13.2709 60.3153 664.176
13.5599 60.8889 663.917
13.5601 60.6006 664.008
13.5577 59.7229 664.144
13.8454 59.4237 664.073
13.8476 59.7223 664.094
13.5596 60.0205 664.154
13.84 59.1114 663.898
14.1356 59.4245 664.039
13.5601 60.3119 664.096
8.75081 69.7366 669.907
8.46081 69.7519 670.101
9.03951 69.7122 669.627
14.4819 67.7709 664.369
14.4725 67.4382 664.017
14.7655 67.7407 664.028
14.1237 65.7208 661.709
13.8203 65.0775 661.226
12.664 63.6361 661.775
12.3779 63.3633 662.057
13.5265 64.479 661.192
13.2394 63.9123 661.486
12.9523 63.6335 661.703
14.4077 65.698 661.435
14.7316 66.72 662.733
14.7179 66.3699 662.195
14.7447 67.0678 663.243
12.666 63.3592 661.969
12.3804 63.0892 662.283
13.5267 64.1924 661.282
13.5276 63.9094 661.411
13.8146 64.1888 661.201
13.2407 63.6312 661.635
13.8157 64.7687 661.09
14.1135 65.3859 661.313
13.8145 64.4758 661.115
14.1034 64.7642 661
14.1065 65.0661 661.065
13.6368 68.4742 665.57
13.3547 68.8066 665.955
14.756 67.4084 663.678
14.4902 68.0987 664.671
13.9243 68.4594 665.381
14.2122 68.4465 665.21
14.4972 68.4206 664.912
15.0301 67.0489 663.011
15.0168 66.7009 662.499
15.0019 66.3465 661.917
15.2865 66.3268 661.675
15.0409 67.3856 663.408
12.2138 69.2178 667.234
12.5011 69.197 666.988
13.6426 68.7922 665.77
12.7874 69.1708 666.69
13.0732 69.1439 666.384
13.3611 69.1284 666.19
13.6483 69.1099 665.966
11.9301 69.5496 667.605
11.0656 69.8945 668.191
10.778 69.9188 668.469
11.3548 69.8807 668.013
10.4894 69.938 668.7
10.2013 69.9621 668.976
11.645 69.874 667.903
9.91266 69.9828 669.22
11.9353 69.8677 667.797
12.2196 69.539 667.457
9.62335 70.0002 669.433
9.33416 70.0195 669.663
12.6738 62.536 662.645
12.9667 62.2659 662.876
13.2604 61.9979 663.133
12.6713 62.8109 662.423
12.9633 62.5373 662.615
13.2562 62.2665 662.839
12.6686 63.0847 662.191
7.3061 70.1569 671.301
7.59611 70.1359 671.054
6.72848 70.5107 671.913
7.01923 70.4934 671.702
7.31008 70.478 671.509
7.60036 70.4586 671.277
6.44054 70.8411 672.253
6.73227 70.8318 672.118
6.73551 71.1477 672.272
7.02344 70.8177 671.938
7.88581 70.1135 670.793
8.17631 70.0994 670.612
8.46648 70.0835 670.414
8.7562 70.0647 670.188
13.5574 61.4552 663.627
13.5541 61.7289 663.382
13.8489 61.174 663.749
13.8498 60.8886 663.87
13.8467 61.4529 663.558
13.5498 61.9975 663.085
14.1406 60.8925 663.87
13.8501 60.3119 664.052
13.849 60.0177 664.079
14.1378 59.7231 664.06
14.131 59.1157 663.904
14.4267 59.4289 664.045
14.1391 60.0181 664.041
14.4281 59.7243 664.031
14.4212 59.1164 663.869
14.7177 59.4326 664.044
9.04567 70.0453 669.956
14.774 68.0685 664.331
15.0586 68.0434 664.04
14.7816 68.3924 664.593
15.0505 67.7176 663.756
15.3458 68.0306 663.87
15.3371 67.703 663.567
14.3981 65.3666 661.073
12.9543 63.3561 661.893
14.1022 64.4709 661.021
13.5295 63.6309 661.588
13.816 63.9079 661.351
13.2428 63.3537 661.824
14.682 65.345 660.809
14.9755 65.6542 660.904
15.3163 67.0337 662.816
15.3027 66.6857 662.302
15.328 67.3736 663.245
12.9568 63.081 662.109
13.8179 63.6288 661.522
14.104 63.9039 661.266
14.1026 64.1854 661.123
13.5321 63.3555 661.799
14.3922 65.0525 660.883
14.3905 64.4692 660.959
14.3909 64.7589 660.901
13.9301 68.7767 665.574
14.7885 68.7136 664.827
14.217 68.7587 665.355
14.5038 68.741 665.138
14.7955 69.0353 665.063
15.6149 67.3612 663.078
15.6031 67.0215 662.65
15.5885 66.67 662.102
15.5708 66.306 661.423
15.871 66.6415 661.773
15.8515 66.2713 661.031
15.6244 67.6914 663.408
12.5078 69.5226 667.254
12.7939 69.4948 666.941
13.9353 69.0913 665.74
13.0804 69.4703 666.66
13.367 69.4475 666.396
13.6547 69.4315 666.196
13.9415 69.4112 665.956
12.2244 69.8549 667.628
11.361 70.2068 668.279
11.0725 70.2259 668.506
11.6502 70.1932 668.102
10.7843 70.2474 668.757
10.4955 70.2656 668.977
11.94 70.1832 667.961
10.207 70.2877 669.233
9.91833 70.3094 669.487
9.62882 70.3263 669.694
12.2293 70.1711 667.8
12.5125 69.8372 667.413
9.3397 70.347 669.937
9.05055 70.3687 670.19
12.9597 62.8076 662.345
13.2525 62.537 662.568
13.5458 62.2672 662.803
13.2492 62.809 662.315
13.5417 62.5368 662.522
13.2461 63.0821 662.076
7.89024 70.4367 671.023
7.31402 70.7989 671.713
7.6046 70.7814 671.5
7.89477 70.7611 671.262
7.02708 71.1367 672.122
7.02987 71.4473 672.224
7.32112 71.4335 672.048
7.31776 71.1179 671.898
8.18096 70.4237 670.852
8.47128 70.4081 670.657
8.76116 70.3897 670.436
13.8426 61.7235 663.281
13.8387 61.9945 663.009
14.1381 61.1709 663.672
14.1352 61.4476 663.457
14.4303 60.8912 663.813
14.1314 61.7197 663.196
13.8348 62.2657 662.743
14.4274 61.1686 663.603
14.72 60.8902 663.758
14.7215 60.6068 663.903
14.4295 60.0196 664.014
14.7197 59.7302 664.054
14.7116 59.118 663.844
14.7206 60.024 664.021
15.0027 59.1222 663.848
14.6991 58.7786 663.361
15.0088 59.4364 664.043
15.0111 59.7355 664.069
15.0668 68.3695 664.325
15.3532 68.3525 664.114
15.6408 68.3411 663.958
15.6331 68.0181 663.703
15.0743 68.6928 664.579
15.3612 68.6774 664.385
15.9281 68.3288 663.792
15.9202 68.0057 663.535
14.6783 65.041 660.722
14.3912 64.1848 661.071
13.8207 63.3539 661.738
14.1063 63.6267 661.457
13.5348 63.0804 662.014
14.9676 65.3318 660.631
14.9636 65.0265 660.53
14.6771 64.7476 660.741
15.2599 65.6354 660.671
15.2531 65.3183 660.45
15.5546 65.9489 660.808
15.5445 65.618 660.451
14.1092 63.3518 661.672
14.3924 63.9022 661.205
14.3946 63.6241 661.385
14.6808 63.9003 661.14
14.6794 64.1822 661
13.8236 63.0794 661.96
14.6777 64.4629 660.849
14.2225 69.0741 665.528
15.0813 69.0138 664.81
14.5091 69.055 665.298
15.3683 68.9986 664.618
14.8028 69.3587 665.314
15.0891 69.3391 665.08
14.5157 69.3755 665.521
15.3764 69.3246 664.895
16.1709 66.9746 662.096
16.1496 66.5977 661.293
16.131 66.2324 660.599
16.4496 66.9309 661.618
15.8371 65.9229 660.503
16.4289 66.558 660.854
16.4134 66.2071 660.302
16.207 67.9922 663.358
12.8001 69.8172 667.175
13.0868 69.7934 666.902
13.374 69.7729 666.66
14.2281 69.3907 665.713
13.6607 69.7508 666.403
13.9483 69.734 666.196
14.2353 69.7151 665.97
14.5226 69.6979 665.759
12.5176 70.1538 667.589
11.3674 70.5339 668.551
11.6564 70.5183 668.356
11.0786 70.5519 668.767
10.7899 70.5712 668.997
11.9457 70.5054 668.188
10.5014 70.5926 669.246
10.2127 70.6139 669.494
12.2345 70.4897 667.993
9.92321 70.6307 669.7
9.63407 70.651 669.939
9.34447 70.6689 670.155
12.5235 70.4759 667.816
12.8055 70.1351 667.365
9.05472 70.6867 670.37
8.76538 70.7088 670.626
13.538 62.8074 662.254
13.8307 62.5352 662.461
13.827 62.8067 662.203
8.18523 70.7449 671.061
8.47582 70.7307 670.88
7.6082 71.0983 671.666
7.89929 71.0857 671.5
8.1899 71.0697 671.302
8.48042 71.054 671.108
7.61174 71.4148 671.825
7.90303 71.4033 671.671
14.127 61.9893 662.91
14.1231 62.2604 662.643
14.4234 61.4407 663.339
14.4197 61.714 663.091
14.7167 61.1662 663.534
15.0096 60.8889 663.7
15.0115 60.6067 663.859
14.416 61.9868 662.84
14.1195 62.5334 662.398
14.7121 61.4362 663.247
15.0058 61.163 663.456
15.2998 60.8894 663.662
14.7212 60.3158 663.966
15.0118 60.3182 663.95
15.302 60.6085 663.835
15.0117 60.0276 664.018
15.2933 59.1246 663.832
14.9902 58.7836 663.376
15.303 60.0325 664.028
15.2999 59.4401 664.042
15.5841 59.1269 663.816
15.2806 58.7857 663.356
15.5698 58.7828 663.281
15.3022 59.7394 664.069
15.5934 59.7429 664.065
15.6485 68.6642 664.212
15.9355 68.6502 664.03
16.2142 68.3121 663.585
15.6553 68.9837 664.428
15.9429 68.9716 664.266
16.222 68.6345 663.832
16.4989 68.2899 663.324
14.9631 64.7364 660.582
14.1124 63.0782 661.903
14.398 63.3509 661.618
14.6835 63.6239 661.339
15.25 65.017 660.389
15.2504 64.731 660.482
14.9646 64.4551 660.725
15.5384 65.3046 660.268
15.5367 65.0093 660.267
15.8281 65.5972 660.197
15.8239 65.2921 660.096
14.4024 63.082 661.899
14.6879 63.3549 661.617
14.9726 63.625 661.306
14.9687 63.8963 661.055
14.9666 64.1754 660.886
14.1161 62.8063 662.154
15.6636 69.3096 664.705
15.9499 69.2918 664.488
14.8106 69.685 665.59
15.0977 69.6678 665.38
15.3847 69.6516 665.179
15.6725 69.6388 665.011
15.9587 69.6196 664.781
16.4691 67.2996 662.335
16.7495 67.2625 661.925
16.7652 67.6151 662.479
16.7292 66.8925 661.194
16.1193 65.8965 660.193
16.7093 66.5241 660.473
16.4029 65.8763 659.946
17.0308 67.2305 661.565
17.0089 66.8555 660.783
16.1121 65.5787 659.966
16.9901 66.4931 660.12
16.6952 66.1799 659.986
16.6873 65.8602 659.74
16.4914 67.9696 663.092
16.7837 68.2689 663.074
16.5069 68.6126 663.575
13.093 70.1152 667.129
13.3802 70.0939 666.881
13.6672 70.0732 666.638
13.9548 70.0554 666.422
14.2426 70.0397 666.226
14.5302 70.0238 666.029
14.8181 70.0096 665.848
15.1058 69.9949 665.663
12.8112 70.455 667.572
11.3733 70.8585 668.798
11.6628 70.8452 668.626
11.0842 70.8748 668.998
11.9513 70.8264 668.402
12.2408 70.814 668.238
10.7958 70.897 669.254
10.5076 70.9213 669.529
10.2183 70.9396 669.749
9.92877 70.9569 669.959
12.5297 70.7993 668.054
9.63908 70.9741 670.167
9.34931 70.9916 670.379
9.05924 71.0077 670.577
12.8182 70.7825 667.849
13.0992 70.4374 667.359
13.387 70.4189 667.137
8.77007 71.0321 670.854
14.4054 62.8068 662.116
8.1939 71.3889 671.489
7.90521 71.7069 671.709
8.48466 71.3745 671.307
8.77492 71.3568 671.093
8.19691 71.6996 671.594
14.4119 62.2579 662.572
14.408 62.5298 662.316
14.7005 62.2543 662.491
14.7079 61.7077 662.98
15.0006 61.431 663.148
14.704 61.9804 662.727
15.2954 61.1619 663.401
15.5902 60.8911 663.638
15.3025 60.3204 663.93
15.5926 60.6102 663.811
14.9958 61.7008 662.862
15.2898 61.4287 663.079
15.5857 61.1632 663.372
15.8804 60.8917 663.601
15.5938 60.3249 663.936
15.8836 60.6136 663.805
15.5913 59.4446 664.049
15.8744 59.1278 663.783
15.8582 58.7773 663.177
15.5942 60.0365 664.029
15.8828 59.4493 664.059
16.1651 59.1297 663.762
16.1478 58.7761 663.121
15.8846 59.7468 664.066
15.8855 60.0406 664.032
16.2293 68.955 664.061
16.2378 69.2808 664.337
16.5145 68.9341 663.813
16.7915 68.5902 663.313
16.7758 67.9472 662.829
17.0781 68.5765 663.135
15.2517 64.4482 660.61
14.6916 63.0826 661.861
14.9765 63.3529 661.551
15.5377 64.7256 660.383
15.5399 64.4465 660.548
15.254 64.17 660.787
15.8233 65.0012 660.14
15.8255 64.7222 660.305
16.1105 64.9962 660.044
16.1098 65.2812 659.942
14.6944 62.8058 662.062
14.9799 63.0789 661.779
15.2602 63.6195 661.205
15.2639 63.3464 661.439
15.2569 63.8937 660.984
15.5419 64.1667 660.708
16.2453 69.6026 664.573
16.5326 69.5893 664.401
15.3935 69.9808 665.482
15.6808 69.9655 665.29
15.9674 69.9475 665.073
16.2536 69.928 664.842
16.5406 69.9131 664.654
17.0484 67.5894 662.182
17.0605 67.9269 662.585
17.33 67.5584 661.833
17.3107 67.1941 661.162
17.3443 67.9037 662.313
17.0693 68.2519 662.863
17.2887 66.8201 660.389
16.3983 65.5699 659.832
17.2724 66.4686 659.831
16.6837 65.5576 659.664
16.3965 65.2744 659.829
17.6107 67.5248 661.459
17.5888 67.1519 660.701
16.9778 66.1565 659.708
17.2616 66.1385 659.484
17.5556 66.4483 659.585
16.9713 65.8427 659.52
16.9684 65.5433 659.475
16.6826 65.2651 659.689
17.363 68.5565 662.896
16.7996 68.9129 663.564
13.6741 70.3977 666.89
13.962 70.3809 666.685
14.25 70.3659 666.496
14.5373 70.3473 666.274
14.8251 70.3321 666.084
15.1131 70.3185 665.909
15.4011 70.3052 665.736
13.106 70.7628 667.616
13.3944 70.7469 667.42
11.3793 71.184 669.051
11.6685 71.1683 668.856
11.0899 71.1993 669.241
11.9577 71.1525 668.661
12.2462 71.1341 668.442
12.536 71.1237 668.298
10.802 71.2251 669.53
10.5133 71.2473 669.785
10.2236 71.2637 669.986
9.93387 71.2801 670.186
9.64389 71.296 670.382
12.8244 71.1055 668.081
9.3536 71.3103 670.563
9.06437 71.3337 670.83
13.113 71.0893 667.882
13.402 71.0761 667.712
13.6826 70.7306 667.22
13.9707 70.7141 667.018
14.6968 62.5276 662.25
8.4877 71.6851 671.411
8.7788 71.6736 671.258
9.06887 71.6549 671.035
14.9856 62.5253 662.181
14.9885 62.2485 662.385
14.9922 61.975 662.626
15.2846 61.6973 662.781
15.5805 61.4324 663.076
15.8766 61.1672 663.372
16.1712 60.8944 663.587
15.8854 60.3302 663.952
16.1746 60.6169 663.797
15.2807 61.971 662.54
15.575 61.7006 662.773
15.8721 61.4394 663.109
16.1671 61.169 663.347
16.4616 60.8957 663.559
16.1767 60.3343 663.953
16.1739 59.4525 664.052
16.4559 59.1318 663.742
16.4386 58.7794 663.116
16.7306 58.7866 663.154
16.1771 59.7547 664.111
16.4647 59.4543 664.029
16.7459 59.1312 663.693
16.7554 59.4554 663.999
17.023 58.795 663.206
16.1771 60.0455 664.043
16.5233 69.2603 664.095
16.8075 69.2355 663.811
17.0845 68.8923 663.32
17.3701 68.8743 663.101
17.3541 68.2318 662.623
15.8277 64.4428 660.467
14.9827 62.8019 661.977
15.2677 63.0732 661.675
15.8297 64.1625 660.621
16.1158 64.4405 660.398
15.5442 63.8877 660.878
16.1127 64.7164 660.2
16.3972 64.9887 659.923
16.3995 64.7097 660.087
15.2705 62.7963 661.875
15.5474 63.6122 661.085
15.5511 63.3387 661.315
15.555 63.066 661.556
15.8316 63.8819 660.773
16.1178 64.1601 660.552
16.8168 69.5634 664.107
16.8258 69.8909 664.397
15.689 70.2917 665.563
15.9757 70.2737 665.346
16.2621 70.2548 665.121
16.5482 70.2351 664.888
16.8343 70.2163 664.664
17.1194 70.1936 664.403
17.6265 67.8753 661.991
17.6383 68.2101 662.367
17.9084 67.8461 661.661
17.8897 67.4861 661.034
17.9224 68.189 662.116
17.6473 68.5351 662.643
17.8681 67.1157 660.3
17.5474 66.1287 659.341
17.8396 66.4314 659.372
16.9682 65.2541 659.534
16.6838 64.9814 659.805
18.1912 67.8215 661.376
18.1703 67.4543 660.678
18.4486 67.4152 660.249
17.2563 65.8298 659.346
17.5425 65.8217 659.22
17.2539 65.5323 659.32
17.8331 66.1186 659.195
18.124 66.4168 659.183
17.2546 65.2466 659.414
16.97 64.9726 659.671
17.6557 68.8572 662.891
17.9415 68.8417 662.695
17.0918 69.2112 663.532
14.2581 70.695 666.791
14.545 70.6742 666.549
14.8314 70.6518 666.291
15.1198 70.6393 666.127
15.4074 70.6238 665.935
15.6951 70.609 665.749
13.6904 71.0601 667.514
13.9794 71.0475 667.35
11.3841 71.5017 669.229
11.6741 71.4901 669.074
11.0954 71.5223 669.468
11.9633 71.4747 668.882
10.8073 71.5481 669.756
12.2524 71.4586 668.685
12.5415 71.4436 668.498
12.83 71.4256 668.284
10.5188 71.5717 670.024
10.2289 71.5871 670.215
9.93892 71.6031 670.41
9.64855 71.6169 670.586
9.3585 71.6337 670.791
13.1186 71.4087 668.079
13.4074 71.394 667.895
13.6969 71.383 667.745
14.2668 71.028 667.12
14.5538 71.0067 666.874
9.36367 71.9594 671.037
9.65358 71.9407 670.816
15.2733 62.5189 662.07
15.2769 62.2446 662.3
15.5665 62.2453 662.264
15.5705 61.972 662.506
15.866 61.7055 662.782
16.1628 61.4427 663.1
16.4654 60.6192 663.78
16.4572 61.1697 663.311
16.468 60.338 663.952
15.8613 61.9768 662.515
16.1579 61.7139 662.829
16.453 61.4442 663.073
16.7518 60.896 663.518
16.7566 60.6226 663.773
16.7473 61.1698 663.27
16.4685 59.7589 664.114
17.0365 59.1325 663.665
17.0454 59.4542 663.943
17.3158 58.8042 663.267
17.3288 59.1394 663.699
16.7593 59.7604 664.088
17.0498 59.7605 664.046
17.6094 58.8158 663.356
17.6206 59.1446 663.715
16.7609 60.0569 664.083
17.0996 69.5329 663.77
17.384 69.5095 663.501
17.3764 69.1892 663.276
17.6626 69.1743 663.087
17.9493 69.1616 662.919
17.9324 68.5171 662.423
15.5588 62.7923 661.788
16.1199 63.8798 660.707
16.4058 64.157 660.476
16.4026 64.4331 660.278
15.8348 63.6063 660.979
16.6857 64.7005 659.949
