32.8637 -86.8213 555.563
32.3601 -87.792 555.509
32.6074 -87.5487 555.486
32.8574 -87.0585 555.482
32.8515 -87.2966 555.407
31.8626 -88.5247 555.533
31.6096 -89.0056 555.48
31.8559 -88.7599 555.441
31.6044 -89.245 555.416
31.6007 -89.4883 555.376
29.9169 -92.3467 556.498
30.3927 -91.8028 556.104
30.155 -92.0751 556.303
31.3515 -89.9794 555.389
31.1126 -90.2463 555.559
31.5951 -89.7263 555.304
31.5904 -89.9668 555.248
31.35 -90.229 555.389
31.1111 -90.496 555.56
30.8683 -91.006 555.688
30.6296 -91.2743 555.865
30.6297 -91.5287 555.893
31.1084 -90.7421 555.538
31.1072 -90.9925 555.542
30.8678 -91.2587 555.706
30.6315 -91.7883 555.952
30.3919 -92.0546 556.116
30.1551 -92.3298 556.332
29.9177 -92.6038 556.54
29.6819 -92.8833 556.781
28.9583 -93.9287 557.239
29.1992 -93.664 557.089
28.9533 -94.1677 557.172
28.7108 -94.4274 557.292
28.466 -94.6798 557.368
28.2249 -94.945 557.52
28.9489 -94.4082 557.115
28.7059 -94.6664 557.226
28.4643 -94.9295 557.365
28.2227 -95.1927 557.505
27.9811 -95.4564 557.647
27.7398 -95.7214 557.796
27.2598 -96.0062 558.124
27.5007 -95.9947 557.993
29.4409 -93.4021 556.955
29.679 -93.1291 556.755
27.2606 -96.2646 558.17
27.0204 -96.5351 558.349
26.7802 -96.8058 558.529
28.2215 -95.4441 557.511
27.9807 -95.7103 557.668
27.7416 -95.9831 557.862
29.6727 -93.3639 556.664
29.4315 -93.6271 556.806
29.1905 -93.891 556.952
26.3022 -97.6138 558.978
26.0622 -97.8871 559.171
26.54 -97.333 558.742
26.7792 -97.0581 558.539
26.7781 -97.31 558.546
26.5407 -97.5917 558.788
26.3012 -97.8664 558.989
27.2606 -96.5205 558.201
27.0189 -96.7855 558.348
26.0628 -98.1458 559.216
25.5988 -99.2699 560.024
25.3786 -100.396 560.766
25.1531 -100.732 561.303
25.3867 -100.685 560.978
25.8345 -98.9779 559.73
26.0634 -98.4044 559.26
26.0654 -98.6684 559.335
25.3966 -100.982 561.228
25.6224 -100.647 560.703
25.6015 -99.5375 560.117
25.6038 -99.8034 560.2
25.6088 -100.08 560.34
25.6148 -100.36 560.504
25.8371 -99.2446 559.818
26.0695 -98.9404 559.454
29.9168 -92.8558 556.552
33.6661 -79.4566 559.887
33.6708 -78.9567 559.915
33.9079 -79.1927 559.737
33.9036 -79.438 559.691
33.6764 -78.7143 559.983
33.9144 -78.9524 559.819
33.6821 -78.4722 560.054
33.4432 -78.2321 560.205
35.0904 -80.368 558.823
35.072 -80.5807 558.554
35.0396 -81.0155 558.085
35.303 -80.8037 558.292
35.103 -80.1419 559.001
35.3381 -80.3741 558.8
34.1426 -79.6785 559.545
34.3894 -79.4268 559.48
35.113 -79.9096 559.137
35.3506 -80.1474 558.974
35.3205 -80.5888 558.545
34.8741 -79.6686 559.278
34.6363 -79.4306 559.441
34.1447 -79.4281 559.555
34.3967 -79.1883 559.574
34.8835 -79.4349 559.405
35.1221 -79.675 559.257
35.3601 -79.9139 559.101
35.0187 -81.4766 557.802
35.028 -81.2435 557.925
35.2781 -81.256 557.945
35.2883 -81.0248 558.084
35.5543 -80.8185 558.328
33.1181 -86.3421 555.631
34.4642 -82.8479 557.022
34.4365 -83.2898 556.624
34.6824 -83.294 556.587
34.6971 -83.0751 556.799
34.4755 -82.6208 557.181
34.7095 -82.8506 556.975
34.9142 -83.5187 556.35
34.9281 -83.298 556.549
35.1714 -83.296 556.471
33.8708 -85.1292 555.678
34.7324 -82.3964 557.294
33.3679 -85.8506 555.621
33.6142 -85.6038 555.577
33.8641 -85.366 555.592
34.1168 -85.135 555.651
34.3684 -84.901 555.692
34.8722 -84.4334 555.777
34.8664 -84.6731 555.708
34.6136 -84.9046 555.651
35.1192 -84.4413 555.764
34.3614 -85.1375 555.603
34.8604 -84.9124 555.637
33.1115 -86.5788 555.546
33.364 -86.0945 555.582
33.6099 -85.8467 555.531
33.8578 -85.6039 555.513
33.36 -86.338 555.54
34.7207 -82.6228 557.13
34.9795 -82.4028 557.272
35.0022 -81.9471 557.586
35.0116 -81.7146 557.712
35.2688 -81.4893 557.823
34.9907 -82.1747 557.427
35.2384 -82.1823 557.413
32.5602 -75.3952 561.87
32.1402 -74.2815 563.14
32.1082 -74.7203 562.631
32.1553 -74.0596 563.378
32.3961 -74.0459 563.207
32.364 -74.4854 562.7
31.932 -73.8569 563.832
32.3796 -74.2647 562.945
32.349 -74.7074 562.466
32.6203 -74.2513 562.776
32.171 -73.8387 563.626
32.4123 -73.826 563.461
31.9489 -73.639 564.105
31.2452 -73.47 564.958
31.4856 -73.4536 564.765
31.7262 -73.4381 564.578
31.9671 -73.4237 564.4
32.207 -73.407 564.203
32.3361 -74.9339 562.268
32.5689 -75.1592 561.995
33.2253 -77.5299 560.662
32.9872 -77.292 560.831
33.4498 -77.9919 560.29
33.4568 -77.7527 560.383
32.9935 -77.0509 560.913
32.7571 -76.8171 561.115
33.6888 -78.2321 560.139
33.4648 -77.5154 560.491
33.2318 -77.2892 560.745
32.9996 -76.8093 560.992
32.7642 -76.5776 561.209
32.7701 -76.3355 561.285
32.777 -76.0956 561.377
32.7851 -75.8584 561.491
32.7938 -75.6224 561.614
32.8048 -75.3916 561.776
26.8658 -71.6057 567.507
26.6231 -71.6203 567.69
27.1092 -71.593 567.338
26.3827 -71.6414 567.926
27.3532 -71.5824 567.186
27.5904 -71.8128 566.927
27.8354 -71.8052 566.799
28.0803 -71.7975 566.67
28.325 -71.7895 566.54
28.804 -72.006 566.106
28.5699 -71.7822 566.414
29.0505 -72.003 566.014
28.8154 -71.7764 566.3
24.1469 -74.4934 568.911
24.1592 -74.2715 569.166
23.8971 -75.0088 569.021
23.9066 -74.7789 569.212
24.1708 -74.0471 569.402
24.1841 -73.5682 569.646
24.4334 -73.0498 569.518
24.1796 -73.8142 569.574
24.6762 -72.7723 569.276
24.1932 -73.3359 569.825
27.5987 -71.576 567.067
29.5368 -72.2389 565.735
29.784 -72.2381 565.661
29.296 -71.9979 565.906
29.5428 -71.9958 565.822
30.7734 -72.7516 565.431
31.021 -73.0094 565.392
30.5246 -72.4909 565.448
30.0314 -72.2377 565.59
30.2797 -72.2396 565.537
30.7744 -72.4963 565.421
31.0236 -72.7578 565.411
31.2736 -72.7636 565.389
31.0249 -72.5032 565.408
30.5282 -72.2417 565.486
32.5794 -74.927 562.149
32.815 -75.1589 561.925
31.8483 -88.9926 555.335
32.1079 -88.2759 555.475
32.1007 -88.5099 555.376
32.3514 -88.0224 555.387
32.5988 -87.7794 555.365
32.344 -88.256 555.285
32.8458 -87.5351 555.336
33.1049 -86.8152 555.46
33.0976 -87.0498 555.363
32.5892 -88.0072 555.227
32.8369 -87.7652 555.211
33.0906 -87.2851 555.27
33.0832 -87.5191 555.17
32.0933 -88.7432 555.273
31.8415 -89.2275 555.243
32.0867 -88.9789 555.185
31.8355 -89.4644 555.164
31.832 -89.7081 555.128
30.1555 -92.5858 556.368
30.6302 -92.0389 555.957
30.3913 -92.3073 556.132
31.5881 -90.2142 555.234
31.3481 -90.4776 555.383
31.8284 -89.9517 555.091
31.8265 -90.2002 555.084
31.587 -90.4649 555.241
31.3468 -90.7279 555.386
31.1061 -91.2434 555.549
30.8682 -91.514 555.74
30.8693 -91.7713 555.786
31.3449 -90.9763 555.379
31.3446 -91.2291 555.398
31.1063 -91.498 555.579
30.8682 -92.0223 555.793
30.6282 -92.2871 555.947
30.392 -92.5638 556.172
30.1519 -92.8292 556.329
29.9115 -93.0938 556.48
29.1873 -94.1357 556.919
29.4236 -93.8567 556.685
29.186 -94.3863 556.922
28.9457 -94.6528 557.083
28.7046 -94.9173 557.23
28.4628 -95.1795 557.364
29.1843 -94.6358 556.919
28.9439 -94.9019 557.076
28.7036 -95.1691 557.239
28.4627 -95.4346 557.392
28.2227 -95.7035 557.565
27.9828 -95.9732 557.741
27.5011 -96.2515 558.03
27.7425 -96.2419 557.911
27.5009 -96.5064 558.056
29.664 -93.5913 556.529
29.9036 -93.3238 556.361
27.2599 -96.7738 558.217
27.0176 -97.0365 558.351
28.4641 -95.6944 557.448
28.2251 -95.9669 557.641
27.9845 -96.2342 557.803
27.7424 -96.497 557.938
29.6585 -93.8285 556.453
29.4223 -94.1073 556.688
26.5406 -97.8473 558.816
26.3004 -98.1198 559.004
26.7774 -97.5634 558.563
27.0163 -97.2878 558.356
27.0154 -97.5402 558.366
26.7775 -97.8197 558.595
26.5393 -98.0986 558.82
26.3001 -98.3749 559.029
27.5006 -96.7612 558.081
27.2575 -97.0209 558.198
25.8389 -99.5084 559.89
25.841 -99.7731 559.966
25.8577 -100.609 560.425
25.632 -100.942 560.946
25.645 -101.251 561.263
25.8689 -100.91 560.701
26.0725 -99.2086 559.552
26.3022 -98.639 559.104
26.3058 -98.9091 559.214
25.8804 -101.212 560.98
25.8908 -101.51 561.239
26.1043 -100.872 560.425
25.8507 -100.325 560.242
25.8457 -100.048 560.1
26.0746 -99.4732 559.628
26.3078 -99.1729 559.287
26.3097 -99.4364 559.358
30.1447 -93.0615 556.223
33.9032 -79.6924 559.709
33.9209 -78.7123 559.903
34.1505 -79.1865 559.627
34.158 -78.9485 559.725
33.9273 -78.4716 559.984
34.1651 -78.7094 559.817
33.9337 -78.2309 560.064
33.6937 -77.9881 560.197
35.5848 -80.3777 558.76
35.5394 -81.0393 558.118
35.5707 -80.6008 558.562
35.5979 -80.1523 558.942
35.8344 -80.388 558.766
34.6442 -79.1933 559.543
35.3701 -79.6811 559.234
35.6087 -79.9214 559.088
35.8472 -80.1615 558.941
35.1311 -79.4401 559.376
34.8909 -79.1965 559.5
34.4029 -78.9472 559.65
34.6505 -78.9523 559.621
35.1377 -79.1997 559.457
35.3786 -79.4452 559.346
35.618 -79.6871 559.21
35.8579 -79.9303 559.084
35.2601 -81.7236 557.708
35.5289 -81.27 557.976
35.518 -81.4996 557.828
35.7909 -81.0544 558.156
35.8056 -80.833 558.363
35.8201 -80.6108 558.566
36.0554 -80.8438 558.372
33.3528 -86.5729 555.444
34.9406 -83.0735 556.724
34.9545 -82.8523 556.921
34.9673 -82.6282 557.101
35.2007 -82.8569 556.887
35.1854 -83.0752 556.67
35.4313 -83.0792 556.632
35.6807 -83.0914 556.648
34.1086 -85.3684 555.543
35.2267 -82.4094 557.252
33.6059 -86.0901 555.489
33.8519 -85.8428 555.441
34.1014 -85.6039 555.449
34.3541 -85.3731 555.509
34.606 -85.1397 555.553
35.1131 -84.6803 555.691
35.3674 -84.4518 555.768
35.1083 -84.9224 555.638
35.3618 -84.6923 555.704
34.8532 -85.1486 555.546
35.617 -84.4656 555.794
34.6007 -85.3804 555.491
35.101 -85.1585 555.546
33.3446 -86.8053 555.332
33.6015 -86.3326 555.441
33.8481 -86.0867 555.403
34.0957 -85.8433 555.38
33.5945 -86.5684 555.351
35.2144 -82.6349 557.081
35.2502 -81.9552 557.576
35.4986 -81.9641 557.571
35.5076 -81.7304 557.689
35.7665 -81.5085 557.824
35.4873 -82.1926 557.417
35.476 -82.4207 557.263
33.0498 -75.3891 561.69
32.6371 -74.033 563.041
32.6052 -74.4736 562.543
32.6542 -73.815 563.31
32.8969 -73.8059 563.173
32.5913 -74.698 562.329
32.8497 -74.469 562.442
32.1882 -73.6211 563.9
32.4308 -73.6111 563.757
32.8792 -74.0227 562.896
32.8376 -74.698 562.261
32.8642 -74.2454 562.664
33.1078 -74.2388 562.548
32.6724 -73.5993 563.599
32.9137 -73.5867 563.434
32.4494 -73.3965 564.055
31.5018 -73.234 565.029
31.7428 -73.2192 564.847
31.9844 -73.2061 564.678
32.2257 -73.1923 564.504
32.4684 -73.1821 564.358
32.7092 -73.1678 564.181
32.8265 -74.9289 562.096
33.0611 -75.1587 561.858
33.4749 -77.2831 560.634
33.2389 -77.05 560.84
33.6986 -77.7438 560.252
33.706 -77.5053 560.35
33.2447 -76.8075 560.912
33.0053 -76.5667 561.063
33.9388 -77.987 560.123
33.7159 -77.2725 560.491
33.4837 -77.0477 560.757
33.2501 -76.5643 560.979
33.0126 -76.3276 561.16
33.0197 -76.0881 561.255
33.0288 -75.8532 561.386
33.0378 -75.6178 561.513
33.2841 -75.6185 561.451
33.2953 -75.3878 561.615
27.1228 -71.3702 567.591
26.8838 -71.3949 567.856
27.3634 -71.3504 567.366
26.6451 -71.4205 568.127
26.1437 -71.6668 568.196
26.4071 -71.4485 568.418
25.9058 -71.6959 568.494
26.9061 -71.195 568.294
27.6071 -71.3392 567.208
27.8455 -71.5727 566.973
28.0928 -71.5711 566.892
28.3391 -71.5669 566.791
28.5835 -71.5582 566.654
29.0599 -71.7684 566.169
28.8274 -71.5481 566.506
29.305 -71.762 566.051
29.0707 -71.5369 566.349
23.9182 -74.5553 569.452
23.6836 -75.1201 569.932
23.9358 -74.3499 569.834
23.9519 -74.1397 570.181
24.9206 -72.5 569.073
24.2214 -73.1611 570.454
25.1645 -72.2267 568.862
25.1951 -72.0549 569.521
27.8539 -71.336 567.115
29.7902 -71.9954 565.751
30.0373 -71.9943 565.674
29.5495 -71.7544 565.922
29.7957 -71.7508 565.826
31.5226 -72.767 565.347
31.2752 -72.5097 565.391
30.776 -72.2425 565.424
30.2859 -71.9967 565.625
30.5341 -71.998 565.568
31.0262 -72.2487 565.405
31.5261 -72.5173 565.382
31.2768 -72.2557 565.392
31.7694 -72.7652 565.266
30.7819 -71.9985 565.504
33.0712 -74.9254 562.003
33.3055 -75.1548 561.761
32.0793 -89.2121 555.083
32.3362 -88.4885 555.177
32.3311 -88.7282 555.115
32.5821 -88.2417 555.131
32.8277 -87.9941 555.08
32.5746 -88.475 555.029
33.075 -87.7512 555.058
33.3386 -87.0434 555.257
33.3311 -87.2776 555.158
32.8205 -88.2285 554.984
33.0662 -87.9815 554.936
33.323 -87.5098 555.046
33.3149 -87.7423 554.938
32.3255 -88.9664 555.043
32.0718 -89.4449 554.979
32.3172 -89.1971 554.926
32.0678 -89.6875 554.936
32.066 -89.9361 554.93
30.3868 -92.8023 556.104
30.8648 -92.2663 555.758
30.6261 -92.5351 555.936
31.8265 -90.454 555.11
31.5845 -90.7116 555.223
32.0651 -90.1871 554.94
32.0659 -90.4432 554.98
31.8243 -90.7016 555.098
31.5821 -90.9583 555.205
31.3433 -91.4795 555.402
31.1053 -91.7494 555.589
31.1044 -92.0007 555.599
31.5814 -91.2104 555.22
31.5802 -91.4608 555.225
31.3418 -91.729 555.402
31.0986 -92.2376 555.521
30.8587 -92.5023 555.675
30.6193 -92.7687 555.839
30.3769 -93.0264 555.95
30.136 -93.2889 556.09
29.423 -94.3642 556.728
29.6586 -94.0835 556.483
29.4212 -94.6131 556.722
29.183 -94.8862 556.92
28.9438 -95.1568 557.104
28.7035 -95.4239 557.266
29.418 -94.8578 556.69
29.1825 -95.1396 556.94
28.9431 -95.4093 557.117
28.7046 -95.6825 557.315
28.4662 -95.9566 557.518
28.2259 -96.2251 557.686
27.9843 -96.489 557.828
27.7418 -96.7506 557.957
27.4989 -97.0108 558.076
29.8954 -93.5528 556.237
29.8933 -93.8008 556.225
30.1288 -93.5209 555.983
27.2557 -97.2702 558.191
28.7065 -95.9441 557.381
28.4666 -96.2135 557.555
28.224 -96.474 557.678
27.9824 -96.7379 557.82
27.7408 -97.0027 557.966
29.8932 -94.0549 556.251
29.6583 -94.3373 556.506
26.7786 -98.0798 558.649
26.54 -98.3574 558.866
27.0168 -97.8012 558.426
27.2556 -97.5257 558.22
27.2582 -97.7909 558.304
27.0188 -98.0644 558.498
26.78 -98.341 558.709
26.5415 -98.6195 558.93
27.498 -97.2631 558.087
26.0773 -99.7403 559.719
26.0813 -100.012 559.836
26.093 -100.571 560.151
26.3402 -100.836 560.166
26.0857 -100.286 559.962
26.1159 -101.173 560.705
25.6581 -101.56 561.581
25.8979 -101.795 561.424
26.1235 -101.46 560.902
26.3498 -101.13 560.401
26.5441 -98.8853 559.016
26.5454 -99.1466 559.075
26.1289 -101.739 561.049
26.3558 -101.41 560.56
26.1342 -102.017 561.194
26.5853 -101.093 560.134
26.3136 -99.7079 559.474
26.5471 -99.4093 559.142
26.5499 -99.6761 559.232
30.3694 -93.2578 555.84
34.1721 -78.4701 559.907
34.4103 -78.7088 559.746
34.1776 -78.2272 559.971
34.4174 -78.4697 559.837
34.6578 -78.7136 559.714
34.1832 -77.9845 560.038
33.9439 -77.7433 560.183
35.7784 -81.2807 557.984
36.0859 -80.4022 558.799
36.0706 -80.6231 558.585
36.0987 -80.1756 558.973
34.8977 -78.9566 559.585
35.6279 -79.454 559.342
35.8678 -79.6972 559.215
36.1079 -79.9409 559.093
35.3857 -79.2058 559.434
35.1457 -78.9625 559.56
34.9053 -78.7184 559.682
35.3937 -78.9684 559.537
35.6365 -79.218 559.454
35.8781 -79.4648 559.352
36.1184 -79.709 559.232
35.756 -81.7391 557.683
36.0272 -81.2899 557.982
36.0163 -81.52 557.837
36.0409 -81.0661 558.171
36.2906 -81.077 558.181
36.3044 -80.8529 558.369
36.3215 -80.6361 558.61
36.5548 -80.8651 558.388
33.586 -86.8001 555.234
35.4492 -82.8669 556.889
35.463 -82.6449 557.083
35.6985 -82.8786 556.902
35.9316 -83.107 556.688
35.9482 -82.8909 556.921
36.1815 -83.1201 556.711
34.347 -85.6092 555.418
33.8426 -86.3265 555.337
34.0904 -86.0836 555.318
34.3408 -85.8472 555.341
34.5935 -85.6165 555.401
34.8471 -85.3873 555.472
35.3568 -84.9341 555.649
35.6114 -84.7061 555.73
35.8677 -84.4817 555.835
35.3489 -85.1688 555.548
35.605 -84.9446 555.653
35.0936 -85.3942 555.452
35.8616 -84.7212 555.765
36.1185 -84.498 555.878
34.8407 -85.6252 555.393
35.3413 -85.4041 555.452
33.5797 -87.0373 555.154
33.8359 -86.563 555.252
34.0849 -86.3233 555.252
34.3341 -86.0842 555.257
34.586 -85.8514 555.304
33.8276 -86.7955 555.141
35.7457 -81.97 557.545
35.736 -82.202 557.417
36.006 -81.7513 557.701
35.7259 -82.4333 557.283
35.7136 -82.6594 557.115
33.1234 -74.0175 562.789
33.0942 -74.4648 562.343
33.1406 -73.7993 563.055
33.1572 -73.5793 563.311
33.3872 -73.799 562.986
33.0826 -74.695 562.171
33.3393 -74.4619 562.254
32.6911 -73.3844 563.895
32.9317 -73.3701 563.718
33.3686 -74.0144 562.698
33.3274 -74.6917 562.08
33.3526 -74.2353 562.454
33.5991 -74.2354 562.387
33.1727 -73.3569 563.549
33.403 -73.5771 563.226
31.7587 -72.9983 565.103
32.0017 -72.988 564.956
32.2429 -72.974 564.78
32.4865 -72.9657 564.648
32.7293 -72.9554 564.5
32.9707 -72.9425 564.333
32.9495 -73.1526 563.995
33.2133 -72.9324 564.187
33.3156 -74.9212 561.905
33.7264 -77.0407 560.64
33.4899 -76.8062 560.836
33.9512 -77.5045 560.279
33.9596 -77.268 560.392
34.198 -77.5073 560.233
33.4968 -76.5663 560.926
33.2573 -76.3249 561.074
34.1907 -77.7463 560.138
33.9679 -77.0312 560.504
34.2054 -77.2685 560.329
33.7342 -76.8028 560.744
33.5039 -76.3266 561.02
33.2654 -76.0876 561.185
33.2739 -75.8511 561.303
33.5115 -76.088 561.122
33.5203 -75.8521 561.244
33.5294 -75.6167 561.372
33.5388 -75.382 561.504
33.5476 -75.1456 561.626
27.3803 -71.1359 567.686
27.1429 -71.1643 567.981
27.6221 -71.1194 567.486
26.6677 -71.2219 568.577
26.1695 -71.4785 568.725
25.6437 -71.9172 568.296
26.4279 -71.2457 568.835
26.6832 -71.0039 568.874
25.6724 -71.7381 568.897
25.9314 -71.5074 569.024
25.4153 -71.9736 568.81
27.1657 -70.9652 568.427
26.9258 -70.9878 568.677
27.4038 -70.9381 568.142
27.8661 -71.1086 567.331
28.1016 -71.3352 567.04
28.3501 -71.3362 566.98
28.5975 -71.3347 566.9
28.8421 -71.3263 566.765
29.3148 -71.528 566.21
29.0852 -71.3145 566.603
29.5584 -71.518 566.063
29.3276 -71.301 566.428
23.6902 -74.8809 570.056
23.703 -74.6609 570.326
25.4438 -71.7947 569.415
24.7437 -72.4506 570.763
24.7551 -72.2236 570.991
24.9788 -72.149 570.333
24.5242 -72.539 571.528
25.6949 -71.5415 569.364
25.2166 -71.8564 569.972
25.46 -71.5806 569.743
25.224 -71.6175 570.105
25.466 -71.3378 569.845
28.1113 -71.1011 567.204
30.0444 -71.7535 565.779
30.2933 -71.7565 565.735
29.8039 -71.5127 565.954
30.052 -71.5137 565.894
31.7764 -72.5237 565.365
31.5277 -72.2635 565.385
32.0155 -72.7619 565.173
31.0307 -72.0014 565.459
30.541 -71.7567 565.669
30.7894 -71.7585 565.615
31.2801 -72.0057 565.424
31.7796 -72.2734 565.395
31.5308 -72.013 565.414
32.0257 -72.5275 565.326
31.0381 -71.7609 565.566
33.5588 -74.9146 561.789
32.3103 -89.4319 554.834
32.5682 -88.7113 554.945
32.5632 -88.9512 554.885
32.8131 -88.4621 554.883
33.0585 -88.2144 554.831
32.8055 -88.6954 554.781
33.3068 -87.9742 554.826
33.5724 -87.2721 555.059
33.5654 -87.5073 554.967
33.052 -88.4506 554.747
33.2989 -88.2069 554.72
33.5563 -87.7371 554.841
33.8085 -87.5068 554.899
33.5479 -87.9688 554.727
33.7992 -87.7363 554.772
32.556 -89.185 554.787
32.3069 -89.6761 554.802
32.5498 -89.4217 554.707
32.3049 -89.9241 554.792
32.3033 -90.1731 554.789
30.61 -92.9948 555.697
31.0884 -92.4615 555.366
30.8506 -92.7321 555.556
32.0644 -90.6928 554.98
31.8214 -90.9472 555.073
32.3032 -90.4267 554.814
32.3019 -90.6767 554.818
32.0618 -90.9389 554.959
31.8203 -91.1976 555.079
31.5792 -91.7118 555.234
31.339 -91.975 555.379
31.3308 -92.2047 555.259
31.8182 -91.4456 555.069
31.8152 -91.6906 555.042
31.5746 -91.9524 555.179
31.0793 -92.6884 555.23
30.8419 -92.9601 555.427
30.6031 -93.2278 555.598
30.3644 -93.4966 555.775
30.1273 -93.7707 555.983
29.655 -94.5815 556.472
29.8922 -94.3064 556.26
29.6518 -94.8259 556.439
29.4178 -95.1121 556.715
29.1817 -95.3921 556.954
28.9435 -95.6658 557.154
29.6525 -95.083 556.481
29.4181 -95.3676 556.747
29.1819 -95.6476 556.985
28.9452 -95.9265 557.215
28.7058 -96.197 557.396
28.4639 -96.4595 557.531
28.2213 -96.7202 557.654
27.9806 -96.9874 557.815
27.7404 -97.2567 557.986
30.1269 -94.0241 556.005
30.3628 -93.7459 555.773
27.4983 -97.5199 558.123
28.945 -96.1809 557.24
28.7034 -96.4443 557.379
28.4615 -96.7069 557.514
28.2203 -96.9719 557.662
27.9805 -97.2426 557.842
30.1252 -94.2732 556.001
29.8879 -94.5471 556.206
27.0203 -98.3258 558.56
26.7805 -98.599 558.751
27.2607 -98.0558 558.386
27.5005 -97.7835 558.198
27.5009 -98.0407 558.236
27.2609 -98.3121 558.418
27.0209 -98.5842 558.603
26.782 -98.8606 558.813
27.7406 -97.5132 558.021
26.3169 -99.977 559.575
26.3202 -100.246 559.677
26.3276 -100.531 559.866
26.5771 -100.805 559.929
26.8226 -101.064 559.907
26.5899 -101.368 560.261
26.361 -101.687 560.702
25.9055 -102.083 561.622
26.141 -102.301 561.373
26.3651 -101.96 560.821
26.5937 -101.639 560.372
26.7835 -99.1224 558.875
26.785 -99.3842 558.938
26.3718 -102.244 560.994
26.5976 -101.911 560.486
26.3811 -102.537 561.225
26.8252 -101.33 559.993
26.8154 -100.78 559.727
26.8287 -101.6 560.097
26.5511 -99.9371 559.289
26.7855 -99.6422 558.978
26.7918 -100.179 559.173
30.6008 -93.4751 555.584
34.4238 -78.2288 559.917
34.665 -78.4747 559.807
34.4294 -77.9862 559.984
34.6697 -78.2298 559.858
34.9116 -78.4773 559.759
35.1542 -78.7263 559.672
34.4364 -77.7465 560.073
36.2783 -81.3041 558.014
36.3375 -80.4165 558.832
36.3503 -80.1898 559.006
36.3604 -79.9569 559.139
35.8877 -79.2308 559.478
36.1285 -79.476 559.365
36.3702 -79.7231 559.265
35.6427 -78.9764 559.527
35.4008 -78.729 559.625
35.1602 -78.4844 559.744
35.649 -78.7352 559.603
35.8938 -78.989 559.55
36.1384 -79.2425 559.495
36.3793 -79.4879 559.382
35.9951 -81.9809 557.555
36.2669 -81.5332 557.862
36.2564 -81.7643 557.724
36.5413 -81.09 558.204
36.5302 -81.3199 558.057
36.5728 -80.6499 558.64
36.5892 -80.4309 558.866
36.8083 -80.8837 558.45
36.7953 -81.1098 558.276
36.8248 -80.6648 558.678
33.8211 -87.0323 555.058
35.964 -82.6731 557.143
36.1986 -82.9051 556.95
36.4319 -83.1341 556.739
36.4186 -83.3579 556.559
36.2131 -82.6839 557.15
36.4474 -82.9152 556.953
36.685 -83.1539 556.807
36.673 -83.3811 556.648
34.0789 -86.5618 555.179
34.328 -86.3224 555.182
34.58 -86.0903 555.232
34.8334 -85.8609 555.301
35.0879 -85.634 555.386
35.5969 -85.1791 555.551
35.8537 -84.9563 555.665
36.111 -84.7343 555.786
36.1253 -84.2601 555.96
36.3685 -84.5123 555.907
35.5872 -85.4096 555.423
35.8441 -85.1873 555.54
35.3339 -85.6399 555.359
36.1019 -84.9668 555.669
36.3603 -84.7471 555.805
36.3774 -84.2792 556.021
36.6194 -84.5285 555.949
35.0805 -85.8698 555.294
35.5775 -85.6398 555.294
33.8158 -87.2722 554.995
34.071 -86.7953 555.075
34.3213 -86.5592 555.099
34.5721 -86.3241 555.129
34.8263 -86.0971 555.212
34.0649 -87.0332 555
35.9849 -82.2123 557.421
35.9763 -82.4471 557.311
36.2459 -81.995 557.585
33.6155 -74.0151 562.636
33.5847 -74.4598 562.171
33.6337 -73.7986 562.916
33.4202 -73.3582 563.491
33.6511 -73.58 563.181
33.8796 -73.7968 562.835
33.5719 -74.6877 561.983
33.8317 -74.4612 562.115
33.1919 -73.1423 563.849
33.8616 -74.014 562.561
33.8191 -74.6897 561.931
33.8461 -74.2366 562.33
34.0929 -74.2375 562.269
33.4386 -73.1417 563.777
33.6682 -73.3606 563.442
33.8983 -73.581 563.122
32.2599 -72.7551 565.051
32.5044 -72.7483 564.932
32.7474 -72.7385 564.788
32.9911 -72.7303 564.656
33.2349 -72.7227 564.529
33.4608 -72.9332 564.125
33.4813 -72.7206 564.445
33.7069 -72.9307 564.039
33.9775 -76.7972 560.637
33.7415 -76.5638 560.841
34.4448 -77.5101 560.186
34.2123 -77.0285 560.418
34.4518 -77.2702 560.275
33.7483 -76.3234 560.93
34.2216 -76.7937 560.545
34.4583 -77.0292 560.357
34.6982 -77.2718 560.221
33.986 -76.5609 560.754
33.7562 -76.0854 561.035
33.7657 -75.851 561.169
33.7742 -75.6139 561.284
33.7819 -75.3753 561.388
33.7912 -75.14 561.517
33.8042 -74.9128 561.708
34.0382 -75.1421 561.466
27.6434 -70.9153 567.891
27.8843 -70.8964 567.671
28.1255 -70.8786 567.461
26.4392 -71.0168 569.046
26.1874 -71.2678 569.08
26.1954 -71.0301 569.221
26.4435 -70.7689 569.105
26.6903 -70.7636 568.995
26.9367 -70.7575 568.877
26.6936 -70.5129 569.032
26.9417 -70.5114 568.951
25.9458 -71.2876 569.306
25.9517 -71.0443 569.404
27.666 -70.7143 568.325
27.1892 -70.508 568.855
27.9063 -70.6936 568.09
27.6806 -70.4925 568.593
28.3593 -71.1011 567.135
28.3707 -70.871 567.332
28.6083 -71.1032 567.084
28.8561 -71.1028 567.012
29.1016 -71.0963 566.893
29.5696 -71.287 566.248
29.3439 -71.0826 566.715
29.8133 -71.2772 566.102
29.5831 -71.0615 566.479
25.7051 -71.3101 569.555
24.7569 -71.9683 570.997
24.9878 -71.9149 570.505
24.7551 -71.7029 570.922
24.5259 -72.2835 571.533
24.5229 -72.014 571.428
24.9894 -71.6595 570.508
24.5186 -71.7408 571.292
24.99 -71.401 570.486
24.7557 -71.4441 570.9
25.7093 -71.0623 569.616
25.2264 -71.3645 570.126
25.4676 -71.0824 569.846
25.2266 -71.1052 570.097
25.4701 -70.8296 569.868
30.2999 -71.5141 565.829
30.5484 -71.5162 565.778
30.0599 -71.2746 566.014
30.307 -71.2731 565.934
32.0311 -72.2821 565.395
31.7819 -72.0209 565.408
32.2727 -72.5263 565.249
31.2864 -71.7626 565.512
30.7978 -71.5201 565.74
31.0454 -71.52 565.671
31.5351 -71.765 565.463
32.0318 -72.0261 565.381
32.2808 -72.2869 565.365
31.7842 -71.7685 565.422
31.2942 -71.5226 565.624
34.0513 -74.915 561.657
32.5462 -89.6655 554.672
32.7992 -88.9316 554.699
32.7943 -89.1718 554.641
33.2923 -88.4429 554.635
33.5401 -88.2018 554.623
34.0597 -87.2737 554.941
34.0522 -87.5079 554.842
33.5338 -88.4386 554.543
33.7908 -87.9678 554.658
34.0428 -87.7373 554.714
33.7825 -88.1996 554.546
34.034 -87.9678 554.593
34.2857 -87.7362 554.642
32.7894 -89.4121 554.583
32.5444 -89.914 554.666
32.7861 -89.6566 554.553
32.5411 -90.1583 554.635
32.5394 -90.4072 554.631
30.8371 -93.1996 555.366
31.3176 -92.4196 555.051
31.0724 -92.9217 555.133
32.3005 -90.9262 554.818
32.0597 -91.1867 554.949
32.5389 -90.6594 554.648
32.5374 -90.9087 554.647
32.2976 -91.1717 554.793
32.057 -91.4329 554.928
31.8093 -91.9275 554.965
31.5632 -92.1728 555.004
31.551 -92.3911 554.816
32.0521 -91.6726 554.869
32.0432 -91.9009 554.741
31.7977 -92.1478 554.789
31.3079 -92.6448 554.905
31.3029 -92.8838 554.844
31.0698 -93.1679 555.114
30.8359 -93.45 555.371
30.5983 -93.7217 555.565
30.3605 -93.9932 555.759
29.8848 -94.792 556.177
30.1211 -94.5147 555.952
29.8866 -95.0522 556.238
29.6535 -95.3407 556.526
29.4196 -95.6275 556.804
29.1838 -95.909 557.05
29.8876 -95.3101 556.284
29.6544 -95.5985 556.572
29.422 -95.8902 556.878
29.1846 -96.1666 557.093
28.9438 -96.4321 557.246
28.7019 -96.6944 557.378
28.4605 -96.9586 557.522
28.2202 -97.2271 557.69
27.9807 -97.4987 557.875
30.3573 -94.2376 555.727
30.5948 -93.9652 555.529
27.7416 -97.7722 558.07
29.185 -96.4231 557.13
28.9433 -96.6856 557.264
28.7019 -96.9496 557.407
28.4603 -97.2135 557.549
28.2196 -97.4805 557.708
30.3527 -94.4775 555.67
30.1181 -94.7596 555.923
27.2609 -98.5681 558.449
27.0206 -98.8392 558.628
27.5001 -98.2936 558.25
27.7399 -98.0221 558.067
27.7384 -98.2726 558.067
27.5011 -98.5533 558.302
27.26 -98.8208 558.461
27.0211 -99.0971 558.669
27.9806 -97.7541 557.903
26.5553 -100.209 559.407
26.565 -100.502 559.643
27.0587 -101.031 559.661
27.0612 -101.297 559.744
27.0534 -100.755 559.522
27.0655 -101.57 559.864
26.8332 -101.875 560.222
26.6042 -102.194 560.656
26.3941 -102.845 561.533
26.613 -102.485 560.873
26.839 -102.154 560.375
27.0217 -99.3552 558.711
26.6237 -102.783 561.13
26.8573 -102.738 560.819
26.6389 -103.1 561.483
27.0707 -101.846 560.001
26.8038 -100.48 559.453
27.0311 -100.159 558.999
27.0435 -100.461 559.286
27.2835 -100.444 559.124
27.2725 -100.147 558.87
30.8316 -93.6911 555.321
34.6756 -77.9878 559.929
34.9174 -78.2349 559.828
34.6818 -77.7463 560.005
34.9225 -77.991 559.886
35.1664 -78.2428 559.819
35.4089 -78.4916 559.729
34.6892 -77.5073 560.1
36.5183 -81.5482 557.899
36.6028 -80.2058 559.052
36.6138 -79.9747 559.197
36.6234 -79.7403 559.32
36.1445 -79.0005 559.566
36.389 -79.2537 559.508
36.6309 -79.5013 559.411
35.8993 -78.7458 559.612
35.6568 -78.497 559.702
35.4156 -78.2511 559.811
35.9061 -78.5054 559.695
36.15 -78.7572 559.628
36.3955 -79.0127 559.586
36.64 -79.2657 559.527
36.236 -82.2271 557.456
36.5078 -81.7793 557.761
36.4973 -82.0103 557.623
36.7829 -81.3374 558.112
36.7714 -81.5666 557.96
36.8413 -80.446 558.905
36.8554 -80.2217 559.097
37.0627 -80.9041 558.526
37.0486 -81.1283 558.337
37.0767 -80.6798 558.715
37.0357 -81.3547 558.164
37.0935 -80.4611 558.945
36.2259 -82.4587 557.324
36.4614 -82.6927 557.144
36.6966 -82.926 556.96
36.9384 -83.1745 556.879
36.6608 -83.6075 556.486
36.9262 -83.4012 556.718
36.3955 -83.8128 556.25
36.6478 -83.8318 556.312
36.4747 -82.4683 557.324
36.7104 -82.7028 557.147
36.949 -82.9441 557.017
37.1787 -83.4195 556.775
34.3144 -86.7954 555.011
34.5631 -86.5551 555.008
34.8164 -86.3262 555.078
35.072 -86.1025 555.182
35.3261 -85.8747 555.261
35.8328 -85.4141 555.388
36.0912 -85.1952 555.527
36.3516 -84.9806 555.695
36.6103 -84.7612 555.832
36.3863 -84.0456 556.133
36.6299 -84.2986 556.084
35.8219 -85.6418 555.243
36.0805 -85.4237 555.386
35.5701 -85.8757 555.203
36.3413 -85.2103 555.561
36.6034 -84.999 555.751
36.6391 -84.0659 556.202
36.8818 -84.3167 556.139
36.8716 -84.5473 556.008
36.8624 -84.7801 555.892
35.3176 -86.1076 555.151
35.8131 -85.8743 555.129
36.0688 -85.6495 555.228
34.3079 -87.0324 554.93
34.5559 -86.7907 554.917
34.8067 -86.5555 554.946
35.0623 -86.3322 555.052
34.3015 -87.2696 554.85
36.4865 -82.2406 557.482
34.1089 -74.0158 562.507
34.079 -74.4634 562.064
33.6866 -73.1437 563.725
33.9165 -73.3637 563.399
34.1461 -73.5833 563.072
34.1264 -73.7972 562.771
34.3748 -73.8011 562.733
34.0648 -74.6886 561.856
34.3272 -74.4675 562.028
34.3559 -74.0169 562.448
34.3136 -74.694 561.829
34.3417 -74.2426 562.241
34.5915 -74.2499 562.229
33.9343 -73.1453 563.669
34.1648 -73.3667 563.354
34.3942 -73.5861 563.026
32.5194 -72.5243 565.165
32.7642 -72.5183 565.051
33.0082 -72.5107 564.924
33.2542 -72.5074 564.83
33.5018 -72.5077 564.765
33.7288 -72.7209 564.381
33.9534 -72.9293 563.961
33.7485 -72.5061 564.685
33.9743 -72.717 564.283
34.2307 -76.5583 560.669
34.4674 -76.7938 560.479
33.9926 -76.32 560.838
34.7063 -77.0344 560.328
34.9454 -77.2754 560.18
34.0011 -76.0831 560.952
34.4763 -76.558 560.6
34.7152 -76.7985 560.447
34.9536 -77.0382 560.289
34.9359 -77.5099 560.053
35.192 -77.2777 560.131
34.2376 -76.3182 560.758
34.011 -75.8494 561.091
34.2473 -76.0839 560.892
34.0193 -75.612 561.203
34.0274 -75.3741 561.312
34.2658 -75.6132 561.145
34.2761 -75.38 561.289
34.2865 -75.1469 561.435
34.2998 -74.9201 561.629
34.5371 -75.1567 561.442
28.1462 -70.672 567.847
28.3873 -70.6539 567.634
28.6189 -70.8711 567.264
26.1977 -70.777 569.239
26.4454 -70.5145 569.113
25.9544 -70.792 569.428
26.1996 -70.5227 569.248
26.4469 -70.2593 569.114
26.6947 -70.2567 569.024
26.9437 -70.2573 568.961
26.6985 -70.0074 569.073
27.1923 -70.2568 568.888
26.9468 -70.0061 568.994
25.7118 -70.8095 569.638
25.9564 -70.5379 569.439
27.9234 -70.4778 568.406
28.1669 -70.4651 568.235
27.6868 -70.2494 568.691
27.9333 -70.2438 568.577
27.4404 -70.2551 568.806
27.1946 -70.0037 568.906
27.4419 -69.9998 568.806
28.4095 -70.4504 568.048
27.6889 -69.9956 568.703
27.9372 -69.9945 568.625
28.1808 -70.241 568.486
28.6323 -70.6459 567.501
28.8673 -70.8717 567.201
29.1156 -70.8722 567.136
29.3616 -70.867 567.027
29.6015 -70.8474 566.801
29.8393 -70.8231 566.539
24.7557 -71.1839 570.865
24.9903 -71.1417 570.458
24.9934 -70.8906 570.496
24.7599 -70.9358 570.928
25.7144 -70.557 569.662
25.2296 -70.8537 570.13
25.4736 -70.5796 569.913
25.235 -70.6091 570.219
30.5551 -71.274 565.873
30.8045 -71.278 565.836
30.5636 -71.0359 566.002
32.2838 -72.0359 565.39
32.0346 -71.7748 565.404
32.5296 -72.2894 565.317
31.5429 -71.5251 565.576
31.0545 -71.2832 565.81
31.3034 -71.2859 565.763
31.7912 -71.5266 565.519
32.2866 -71.7845 565.413
32.5347 -72.0432 565.38
32.0405 -71.5303 565.481
31.5511 -71.2861 565.697
34.5493 -74.9272 561.615
32.7847 -89.9063 554.555
33.0293 -89.4035 554.466
33.2745 -89.1556 554.412
33.528 -88.6767 554.472
33.7759 -88.4358 554.462
34.2954 -87.5077 554.777
33.7703 -88.6745 554.394
33.5215 -88.9127 554.388
34.0246 -88.197 554.465
34.2752 -87.9629 554.498
34.0177 -88.4323 554.376
34.2666 -88.1941 554.383
34.5261 -87.7291 554.533
34.5353 -87.499 554.657
34.5169 -87.9591 554.41
33.0255 -89.6464 554.426
32.7803 -90.1477 554.506
33.0228 -89.8927 554.407
32.7773 -90.3929 554.479
32.7773 -90.6464 554.505
31.0682 -93.4169 555.111
31.5433 -92.6221 554.706
31.302 -93.1351 554.855
32.5352 -91.1563 554.636
32.2951 -91.4184 554.777
32.7763 -90.8971 554.513
32.7747 -91.1461 554.51
32.5324 -91.4018 554.612
32.2889 -91.6544 554.695
32.0328 -92.1245 554.586
31.7866 -92.3691 554.621
31.7794 -92.6019 554.521
31.5387 -92.8623 554.651
32.2788 -91.8795 554.548
32.2688 -92.1044 554.401
32.0235 -92.3514 554.451
31.5352 -93.1057 554.616
31.3006 -93.3846 554.855
31.0632 -93.6557 555.048
30.8253 -93.926 555.234
30.5904 -94.2057 555.476
30.1188 -95.0162 555.963
30.3514 -94.7277 555.672
30.1199 -95.2742 556.012
29.8885 -95.5675 556.328
29.6571 -95.8621 556.651
29.4237 -96.1508 556.938
30.1213 -95.5331 556.064
29.8911 -95.8304 556.404
29.6595 -96.1244 556.722
29.4254 -96.4115 556.999
29.1855 -96.6797 557.167
28.943 -96.9398 557.287
28.7017 -97.2043 557.432
28.4601 -97.4682 557.574
28.2185 -97.7323 557.716
27.9782 -98.0011 557.884
30.5861 -94.4465 555.424
30.8219 -94.1696 555.199
29.185 -96.9331 557.185
28.9428 -97.1945 557.312
28.7013 -97.4582 557.453
28.4586 -97.7183 557.573
28.2164 -97.9806 557.704
30.5842 -94.6949 555.417
30.3523 -94.9848 555.716
27.5002 -98.8059 558.313
27.2589 -99.0727 558.468
27.7394 -98.5319 558.117
27.9768 -98.2518 557.886
27.9778 -98.5111 557.936
27.7387 -98.7851 558.132
27.4979 -99.0533 558.296
27.2946 -100.998 559.414
27.2978 -101.266 559.508
27.2907 -100.726 559.302
27.302 -101.538 559.627
27.309 -101.821 559.799
27.0768 -102.126 560.158
26.8473 -102.442 560.578
27.0846 -102.412 560.35
26.8699 -103.043 561.113
26.8865 -103.365 561.491
27.0923 -102.698 560.54
27.3232 -102.387 560.151
27.1029 -102.996 560.789
27.3371 -102.954 560.498
27.1172 -103.307 561.116
27.1339 -103.629 561.494
27.3156 -102.102 559.966
27.5139 -100.135 558.741
27.5234 -100.426 558.965
27.528 -100.699 559.088
27.5038 -99.8427 558.507
27.7572 -100.131 558.654
27.7641 -100.412 558.823
31.0564 -93.8891 554.953
34.9283 -77.7484 559.955
35.1717 -77.9991 559.879
35.1764 -77.7541 559.93
35.4203 -78.0061 559.862
35.6643 -78.2581 559.796
35.1839 -77.5153 560.025
36.7593 -81.7944 557.799
36.866 -79.9894 559.234
36.8755 -79.7549 559.356
37.1192 -80.0063 559.286
36.8837 -79.5173 559.457
37.1281 -79.7704 559.399
36.4014 -78.7701 559.653
36.1561 -78.5151 559.698
36.6472 -79.0261 559.615
36.8919 -79.2796 559.558
35.9128 -78.2646 559.776
35.67 -78.0151 559.861
36.1641 -78.277 559.799
36.4079 -78.5288 559.73
36.6533 -78.7837 559.684
36.898 -79.0375 559.629
36.7479 -82.0236 557.649
36.7374 -82.2546 557.511
37.0254 -81.5869 558.033
37.013 -81.8142 557.868
37.1082 -80.2379 559.144
37.3602 -80.252 559.177
37.3161 -80.9223 558.586
37.3031 -81.1489 558.413
37.3312 -80.6998 558.788
37.2914 -81.3783 558.261
37.3464 -80.4777 558.994
37.2798 -81.6077 558.109
36.725 -82.4813 557.347
36.9614 -82.7175 557.181
37.1921 -83.1953 556.954
37.2026 -82.9644 557.088
37.444 -83.2119 556.999
36.9023 -83.8554 556.403
37.1657 -83.6446 556.604
37.4322 -83.4399 556.846
36.8921 -84.0863 556.272
37.1558 -83.8763 556.477
36.9763 -82.4964 557.383
37.2136 -82.7347 557.231
37.42 -83.6671 556.688
34.5497 -87.0286 554.841
34.798 -86.7875 554.832
35.0525 -86.5615 554.92
35.3084 -86.3387 555.029
35.5621 -86.11 555.101
36.3293 -85.4359 555.4
36.5924 -85.2273 555.607
36.8528 -85.0117 555.769
37.1337 -84.3346 556.192
36.0593 -85.8807 555.106
36.3188 -85.6646 555.261
35.8061 -86.1111 555.044
36.58 -85.452 555.44
36.8413 -85.239 555.619
37.1019 -85.0238 555.783
37.1446 -84.1052 556.332
37.1236 -84.5654 556.062
37.1135 -84.7963 555.934
37.3641 -84.8113 555.967
35.5527 -86.3407 554.977
36.0525 -86.1178 555.023
36.3082 -85.8932 555.122
34.5427 -87.2643 554.752
34.7914 -87.0244 554.75
35.043 -86.7916 554.794
35.2978 -86.5663 554.886
34.6065 -74.0257 562.448
34.5782 -74.4775 562.036
34.1815 -73.1456 563.605
34.4131 -73.3698 563.311
34.6428 -73.59 562.988
34.6235 -73.8055 562.699
34.8739 -73.8134 562.693
34.5638 -74.7025 561.826
34.8577 -74.0354 562.455
34.8152 -74.7135 561.842
34.8437 -74.2619 562.253
34.8301 -74.4893 562.059
34.1997 -72.9276 563.88
34.4311 -73.1512 563.58
34.6617 -73.3734 563.271
34.8906 -73.5921 562.937
32.7765 -72.288 565.238
33.0233 -72.2863 565.156
33.2707 -72.2858 565.085
33.5198 -72.2892 565.044
33.7679 -72.2903 564.984
33.9942 -72.5025 564.589
34.2197 -72.7131 564.184
34.4488 -72.9319 563.845
34.012 -72.283 564.859
34.2374 -72.4935 564.452
34.484 -76.3195 560.701
34.7236 -76.5616 560.559
34.9626 -76.8022 560.407
35.1999 -77.0396 560.233
35.4412 -77.2855 560.12
34.2574 -75.8505 561.033
34.4932 -76.084 560.826
34.7326 -76.3257 560.68
34.9721 -76.5674 560.536
35.2101 -76.8061 560.37
35.4346 -77.5265 560.04
35.4481 -77.0451 560.206
35.6927 -77.2982 560.147
34.5043 -75.8528 560.983
34.7416 -76.0898 560.801
34.5143 -75.6189 561.121
34.5255 -75.3873 561.277
34.764 -75.627 561.114
34.7759 -75.397 561.282
34.787 -75.1649 561.436
34.801 -74.9391 561.637
28.6525 -70.4369 567.871
28.879 -70.6421 567.403
26.202 -70.2697 569.267
25.9596 -70.2873 569.478
26.4512 -70.0114 569.175
26.7047 -69.7642 569.172
26.9512 -69.7582 569.055
27.1972 -69.7511 568.928
25.718 -70.3073 569.709
28.4273 -70.2357 568.374
28.672 -70.2261 568.228
27.6919 -69.7441 568.734
28.1866 -69.9962 568.571
27.9405 -69.7436 568.661
27.444 -69.746 568.818
27.4482 -69.4977 568.875
28.9166 -70.2164 568.081
27.6968 -69.4973 568.803
28.1885 -69.7419 568.579
27.9446 -69.4948 568.714
28.435 -69.9957 568.498
28.8965 -70.4262 567.716
29.1279 -70.6436 567.346
29.3765 -70.6445 567.285
29.6225 -70.6392 567.174
29.8634 -70.6221 566.968
25.0036 -70.6592 570.693
25.2438 -70.3737 570.384
25.0228 -70.4532 571.097
25.4787 -70.3341 569.994
25.4902 -70.1058 570.217
30.8136 -71.0411 565.976
31.0635 -71.0461 565.947
30.8239 -70.807 566.137
31.0733 -70.8105 566.097
32.5382 -71.7934 565.414
32.2898 -71.534 565.442
32.7855 -72.0502 565.366
31.8003 -71.2893 565.654
31.3125 -71.049 565.902
31.5609 -71.0504 565.845
32.0498 -71.2934 565.619
32.5423 -71.5447 565.459
32.7914 -71.8056 565.442
33.0358 -72.0559 565.343
32.2974 -71.2932 565.549
31.8097 -71.0527 565.795
33.0191 -90.1359 554.369
33.269 -89.3944 554.346
33.2645 -89.6355 554.294
33.5102 -89.3895 554.252
33.5152 -89.1494 554.309
33.7575 -89.1475 554.233
33.7639 -88.911 554.314
34.0131 -88.6738 554.326
34.0083 -88.9145 554.272
34.2608 -88.4325 554.313
34.5089 -88.1919 554.305
34.2563 -88.674 554.264
34.5023 -88.4285 554.224
34.767 -87.7234 554.433
34.7744 -87.4886 554.527
34.7584 -87.9549 554.32
35.0104 -87.7239 554.372
34.7828 -87.2563 554.637
34.7492 -88.1848 554.196
33.2606 -89.8784 554.255
33.0164 -90.3819 554.348
33.2591 -90.1277 554.255
33.0169 -90.6368 554.382
33.0159 -90.8875 554.39
31.2948 -93.6212 554.779
31.7764 -92.8467 554.495
31.532 -93.35 554.586
32.7699 -91.3864 554.455
32.5247 -91.6338 554.507
33.0128 -91.1325 554.364
33.0055 -91.3657 554.266
32.7595 -91.6108 554.304
32.5139 -91.8569 554.348
32.2607 -92.3347 554.287
32.0174 -92.5875 554.372
32.0134 -92.8292 554.327
31.7707 -93.0837 554.421
32.5045 -92.0838 554.213
32.4979 -92.3184 554.126
32.255 -92.5719 554.215
31.7634 -93.3158 554.319
31.5266 -93.5877 554.517
31.2898 -93.8598 554.716
31.0535 -94.1344 554.928
30.8195 -94.4163 555.182
30.3525 -95.2398 555.747
30.5851 -94.952 555.461
30.3534 -95.4971 555.791
30.1257 -95.8016 556.173
29.8935 -96.093 556.477
29.6633 -96.3917 556.822
30.3581 -95.7663 555.904
30.1288 -96.0663 556.259
29.8967 -96.358 556.563
29.4265 -96.9251 557.076
29.1844 -97.1863 557.202
28.9422 -97.4475 557.328
28.6992 -97.7064 557.441
28.4568 -97.9677 557.567
28.2158 -98.2339 557.721
30.8184 -94.6668 555.189
31.0532 -94.3872 554.948
29.4254 -97.1765 557.083
29.1835 -97.4386 557.214
28.9408 -97.698 557.33
28.6976 -97.9562 557.439
28.4561 -98.2206 557.582
30.8182 -94.9204 555.212
30.5849 -95.2056 555.484
27.9766 -98.7624 557.941
28.2171 -98.4939 557.775
27.53 -100.963 559.158
27.5333 -101.231 559.255
27.5384 -101.507 559.389
27.5458 -101.791 559.571
27.5537 -102.076 559.761
27.5612 -102.361 559.943
27.3301 -102.67 560.323
27.5684 -102.644 560.119
27.3485 -103.254 560.761
27.3645 -103.572 561.121
27.5748 -102.925 560.28
27.5845 -103.219 560.508
27.8238 -103.196 560.324
27.5971 -103.523 560.794
27.6014 -103.796 560.911
27.7477 -99.8406 558.432
28.0007 -100.127 558.57
27.7663 -100.676 558.896
28.005 -100.399 558.686
27.7673 -100.936 558.945
27.9926 -99.8425 558.379
27.9831 -99.5526 558.159
28.2438 -100.122 558.479
28.0053 -100.656 558.721
31.2886 -94.1102 554.722
35.4273 -77.7659 559.948
35.6784 -77.778 559.969
35.9213 -78.0277 559.885
37.0004 -82.0409 557.701
37.1365 -79.5331 559.502
37.3723 -80.0229 559.336
37.3819 -79.7881 559.457
37.1434 -79.2925 559.584
36.6619 -78.5469 559.793
36.4179 -78.2949 559.86
36.9059 -78.7989 559.725
37.1505 -79.0521 559.667
36.1741 -78.0432 559.93
35.9301 -77.7914 559.999
36.4279 -78.061 559.991
36.6718 -78.3126 559.921
36.9147 -78.5623 559.836
37.1576 -78.812 559.752
36.9894 -82.2711 557.558
37.2681 -81.8368 557.957
37.2557 -82.0642 557.794
37.6137 -80.2695 559.232
37.6005 -80.4964 559.059
37.6265 -80.0416 559.401
37.5859 -80.7203 558.865
37.8281 -80.9689 558.776
37.5475 -81.4024 558.36
37.8153 -81.1964 558.609
37.8419 -80.743 558.956
37.5359 -81.6321 558.211
37.524 -81.8608 558.055
37.2286 -82.5135 557.433
37.4556 -82.9834 557.15
37.4679 -82.7561 557.31
37.711 -83.0074 557.246
37.9555 -83.2615 557.201
37.4089 -83.8962 556.544
37.6757 -83.6922 556.79
37.943 -83.4884 557.039
37.3972 -84.1241 556.392
37.6626 -83.9174 556.62
37.2425 -82.2896 557.618
37.4825 -82.5338 557.505
37.9311 -83.7164 556.886
35.0354 -87.026 554.696
35.2873 -86.7939 554.744
35.5418 -86.5676 554.831
35.7971 -86.3429 554.927
36.5688 -85.6796 555.294
36.8299 -85.4665 555.47
37.0901 -85.2505 555.629
37.3518 -85.0373 555.807
37.3867 -84.3546 556.259
37.3755 -84.5833 556.115
36.3002 -86.1279 555.023
36.5589 -85.91 555.166
36.0442 -86.3515 554.918
36.8196 -85.6961 555.336
37.0802 -85.4813 555.502
37.3418 -85.2683 555.68
37.65 -84.1434 556.455
37.6186 -84.835 556.057
37.6059 -85.0602 555.891
37.6299 -84.6064 556.202
35.7854 -86.5682 554.77
36.2915 -86.3608 554.913
36.55 -86.1425 555.053
35.026 -87.2562 554.572
35.2776 -87.0235 554.616
35.5305 -86.7935 554.678
34.6805 -73.1562 563.551
34.9108 -73.378 563.239
35.1409 -73.5996 562.927
35.124 -73.8205 562.68
35.1096 -74.0468 562.474
35.0954 -74.2731 562.27
35.0675 -74.7264 561.872
35.0524 -74.9502 561.654
35.0817 -74.5003 562.075
34.467 -72.7134 564.119
34.6972 -72.9345 563.798
34.9301 -73.1617 563.526
35.1613 -73.3854 563.229
33.2855 -72.0604 565.311
33.5347 -72.0637 565.269
33.7831 -72.0654 565.214
34.0293 -72.0622 565.121
34.2566 -72.2769 564.744
34.4845 -72.4929 564.379
34.7145 -72.7139 564.056
34.9479 -72.9421 563.789
34.2734 -72.0549 564.996
34.5035 -72.2756 564.666
34.7341 -72.4977 564.349
34.9815 -76.3324 560.663
35.2208 -76.5739 560.516
35.4576 -76.8101 560.332
35.7001 -77.0587 560.239
35.6861 -77.5394 560.066
34.7514 -75.8554 560.935
34.9905 -76.0962 560.783
35.2304 -76.3391 560.646
35.4678 -76.5766 560.47
35.7082 -76.8206 560.342
35.9455 -77.3136 560.192
35.9371 -77.5511 560.085
35.9539 -77.0761 560.299
35.0017 -75.8649 560.939
35.2406 -76.1054 560.784
35.014 -75.6356 561.111
35.026 -75.4055 561.279
35.0375 -75.1743 561.439
29.1609 -70.2063 567.931
29.1421 -70.4195 567.594
26.714 -69.5292 569.34
26.9567 -69.5132 569.14
27.2007 -69.5008 568.97
28.6832 -69.9945 568.42
28.4376 -69.7431 568.519
28.9302 -69.9906 568.319
28.6873 -69.7457 568.472
28.1925 -69.4929 568.63
27.7054 -69.2596 568.948
29.1775 -69.9873 568.224
29.407 -70.2005 567.816
27.9523 -69.255 568.842
28.4416 -69.4938 568.569
29.3904 -70.4193 567.524
29.6391 -70.4203 567.463
29.8866 -70.4185 567.38
30.1308 -70.4088 567.234
30.3725 -70.3936 567.043
25.2646 -70.1713 570.818
25.5122 -69.9063 570.676
25.7398 -69.8472 570.125
25.7637 -69.652 570.621
31.3215 -70.8114 566.036
30.8389 -70.5835 566.386
31.0847 -70.5785 566.277
30.5941 -70.5907 566.511
32.796 -71.558 565.495
32.5489 -71.3016 565.548
33.0447 -71.8178 565.47
32.0597 -71.0576 565.766
31.8211 -70.8203 565.971
32.308 -71.0589 565.708
32.803 -71.3155 565.59
33.0517 -71.5753 565.565
33.297 -71.8277 565.481
32.5592 -71.0664 565.7
32.0718 -70.8266 565.953
33.2566 -90.3743 554.238
33.5049 -89.6287 554.189
33.7525 -89.3876 554.176
33.5005 -89.8702 554.14
33.7465 -89.625 554.102
34.0017 -89.1505 554.188
33.9951 -89.3865 554.105
34.2523 -88.9171 554.224
34.246 -89.1538 554.145
34.498 -88.6706 554.178
34.743 -88.4222 554.12
34.4939 -88.9131 554.135
34.7383 -88.6636 554.07
35.0181 -87.4897 554.47
35.0014 -87.9547 554.254
35.2532 -87.723 554.302
35.2617 -87.4907 554.412
34.9921 -88.1843 554.129
35.2453 -87.9565 554.201
35.4971 -87.7248 554.249
35.2696 -87.2569 554.513
34.9863 -88.423 554.061
33.4986 -90.1183 554.133
33.2549 -90.623 554.234
33.4965 -90.3661 554.124
33.2544 -90.8752 554.251
33.2514 -91.1202 554.225
31.5239 -93.8334 554.496
31.7595 -93.5579 554.277
32.9961 -91.593 554.132
32.7476 -91.8308 554.127
33.2439 -91.353 554.125
33.2352 -91.5824 554.004
32.9857 -91.8175 553.983
32.7412 -92.0663 554.044
32.4933 -92.5589 554.073
32.2493 -92.8091 554.143
32.7363 -92.3057 553.986
32.7298 -92.5407 553.901
32.486 -92.7914 553.974
31.7586 -93.8087 554.287
31.9964 -93.7939 554.136
31.5236 -94.0859 554.516
31.2892 -94.3656 554.758
31.0527 -94.6397 554.966
30.587 -95.4662 555.548
30.8179 -95.1735 555.233
30.5915 -95.7346 555.657
30.3631 -96.0367 556.024
30.1313 -96.3289 556.332
29.9009 -96.6265 556.67
29.902 -96.885 556.719
30.5959 -96.0027 555.764
30.3654 -96.2985 556.093
30.1339 -96.5919 556.407
29.6657 -97.1646 556.951
29.4243 -97.428 557.09
29.6637 -97.4131 556.941
29.1818 -97.688 557.209
28.9393 -97.9484 557.331
28.6965 -98.2079 557.446
28.4563 -98.4768 557.615
31.0514 -94.8896 554.969
31.2883 -94.6168 554.768
29.4227 -97.6778 557.088
29.1812 -97.9412 557.226
28.9384 -98.2005 557.341
28.6975 -98.4667 557.494
31.0515 -95.1439 554.998
30.8208 -95.4365 555.312
27.7708 -101.205 559.047
27.7758 -101.479 559.176
27.7814 -101.757 559.32
27.7893 -102.042 559.509
27.7976 -102.329 559.706
27.8061 -102.617 559.906
27.814 -102.903 560.096
27.8345 -103.493 560.568
27.847 -103.797 560.851
28.062 -103.17 560.119
28.0729 -103.468 560.367
28.3095 -103.436 560.131
28.0513 -102.874 559.875
28.0849 -103.769 560.636
28.0997 -104.081 560.962
28.2368 -99.8416 558.311
28.2279 -99.5543 558.105
28.2452 -100.383 558.536
28.0064 -100.916 558.772
28.2448 -100.638 558.557
28.0101 -101.185 558.876
28.4793 -99.835 558.211
28.472 -99.5538 558.039
28.4643 -99.271 557.858
28.4842 -100.108 558.336
28.4842 -100.364 558.365
28.2457 -100.897 558.605
31.5245 -94.3424 554.558
36.1831 -77.8072 560.046
37.6437 -79.5674 559.612
37.637 -79.8084 559.534
37.8906 -79.8255 559.588
37.4028 -79.0664 559.702
36.9236 -78.3257 559.948
37.1668 -78.576 559.868
36.6814 -78.0776 560.044
37.4112 -78.8288 559.805
36.4362 -77.8232 560.095
36.1908 -77.5683 560.143
36.6899 -77.8402 560.151
36.9334 -78.091 560.074
37.1751 -78.3381 559.971
37.4189 -78.5896 559.898
37.5117 -82.0886 557.894
37.4967 -82.3106 557.695
37.8698 -80.2921 559.324
37.8561 -80.5182 559.144
37.8809 -80.0603 559.466
38.0974 -80.7647 559.04
38.0845 -80.9925 558.874
38.0723 -81.2216 558.717
38.3404 -81.0149 558.962
37.8044 -81.428 558.47
37.793 -81.6582 558.324
38.0603 -81.451 558.563
38.3287 -81.2451 558.813
38.1122 -80.5409 559.236
38.354 -80.7883 559.138
37.7804 -81.8858 558.16
37.7665 -82.1103 557.977
37.7241 -82.7815 557.416
37.7369 -82.555 557.583
37.9682 -83.0347 557.364
37.9806 -82.8075 557.526
38.2131 -83.2898 557.325
38.2003 -83.5163 557.161
38.2255 -83.0623 557.484
37.918 -83.942 556.717
38.1876 -83.7429 556.997
37.641 -84.3773 556.344
37.7517 -82.3329 557.781
38.1754 -83.9705 556.842
35.5206 -87.0228 554.547
35.7753 -86.7969 554.635
36.0329 -86.578 554.768
36.8101 -85.9275 555.215
37.0712 -85.7143 555.389
37.3331 -85.5021 555.572
37.5961 -85.2921 555.77
36.5398 -86.3721 554.921
36.8003 -86.1584 555.091
36.2809 -86.589 554.774
37.0615 -85.9456 555.267
37.324 -85.735 555.459
37.5864 -85.5238 555.648
37.887 -84.6354 556.327
37.8746 -84.8618 556.168
37.8634 -85.0906 556.025
37.8524 -85.3198 555.886
36.0228 -86.807 554.635
36.5286 -86.599 554.774
36.7888 -86.3848 554.939
35.513 -87.2573 554.451
35.7651 -87.0255 554.5
35.1807 -73.1692 563.516
35.4125 -73.3945 563.231
35.3946 -73.614 562.97
35.3787 -73.8375 562.741
35.3639 -74.0629 562.529
35.3501 -74.2903 562.334
35.3351 -74.5151 562.119
35.3191 -74.7375 561.888
35.3038 -74.9612 561.669
35.2889 -75.1856 561.457
34.9653 -72.7214 564.046
35.1991 -72.9506 563.787
35.4315 -73.177 563.509
33.5493 -71.8374 565.489
33.7993 -71.8422 565.459
34.0466 -71.8412 565.383
34.2925 -71.8373 565.285
34.5217 -72.0564 564.94
34.7535 -72.2808 564.639
34.984 -72.5031 564.323
35.2185 -72.7335 564.072
