58.3758 -33.6488 574.886
58.9115 -33.4047 575.008
55.7353 -34.8863 574.604
55.9895 -34.8877 574.543
55.2177 -35.1394 574.647
55.4685 -35.1387 574.55
55.7232 -35.1404 574.495
54.9614 -35.3984 574.702
54.7211 -35.6679 574.926
55.2097 -35.396 574.58
54.963 -35.6612 574.735
54.4878 -35.9421 575.224
54.7294 -35.9351 575.03
58.6367 -33.6539 574.887
58.0923 -33.8926 574.676
58.3559 -33.8994 574.706
59.1697 -33.4081 574.981
59.4349 -33.1532 575.006
59.6963 -32.8962 574.995
59.9579 -32.6391 574.984
60.2249 -32.3849 575.024
59.9568 -32.9007 574.989
59.693 -33.1565 574.977
59.4285 -33.4118 574.96
60.222 -32.6456 575.012
63.9207 -29.5813 575.171
64.1901 -29.3267 575.222
63.1139 -30.345 575.023
62.8526 -30.603 575.042
62.5991 -30.8647 575.131
46.2293 -39.4238 579.223
46.9593 -39.6606 578.613
46.7126 -39.6664 578.78
46.4655 -39.672 578.943
46.2201 -39.6791 579.128
47.4407 -39.902 578.158
47.1928 -39.9066 578.306
47.69 -39.8986 578.028
47.9351 -39.8917 577.847
48.4377 -39.6258 577.62
45.488 -39.7046 579.743
45.4895 -39.9692 579.782
48.1817 -39.8862 577.686
48.4194 -39.8734 577.42
48.6666 -39.6061 577.251
45.255 -40.2501 580.135
45.4945 -40.2371 579.866
45.0091 -40.7848 580.362
44.7566 -41.0501 580.486
44.503 -41.3146 580.597
45.2547 -40.5134 580.15
53.4745 -36.9875 575.583
52.184 -37.7537 575.739
51.932 -38.0162 575.844
52.4364 -37.4917 575.639
51.6742 -38.2744 575.885
52.1841 -38.0159 575.757
51.9288 -38.2759 575.826
52.4379 -37.7547 575.672
52.6927 -37.7564 575.616
51.4119 -38.5292 575.875
51.1573 -38.5277 575.933
51.6672 -38.5313 575.824
50.3949 -38.7863 576.144
50.8982 -38.7848 575.958
50.6373 -39.0405 575.964
50.1325 -39.0408 576.13
49.6149 -39.2931 576.168
50.3853 -39.0409 576.052
48.6424 -39.8487 576.982
53.9908 -36.7333 575.523
53.7332 -36.9919 575.567
52.9502 -37.498 575.571
53.4697 -37.2463 575.548
53.208 -37.5019 575.548
52.95 -37.7599 575.586
53.4657 -37.5055 575.522
49.1116 -39.5569 576.373
49.8655 -39.2916 576.064
50.1204 -39.2934 576.01
51.15 -38.7842 575.869
50.8898 -39.0404 575.882
49.3521 -39.5471 576.149
48.8594 -39.8195 576.478
48.6151 -40.0886 576.677
49.0933 -39.8042 576.176
49.5999 -39.5433 576.013
54.4904 -36.2059 575.269
54.2421 -36.4706 575.412
54.4895 -36.4672 575.276
54.2395 -36.7308 575.401
53.9868 -36.9927 575.497
63.3692 -30.3465 574.964
63.6363 -30.0912 574.997
63.1053 -30.6033 574.959
62.8521 -30.8652 575.052
63.9029 -29.8356 575.026
63.6242 -30.348 574.903
63.8883 -30.0912 574.908
64.1725 -29.5812 575.08
62.3466 -31.1271 575.231
62.5974 -31.1264 575.13
62.3385 -31.3855 575.171
64.4422 -29.3267 575.133
64.7144 -29.0732 575.209
61.3009 -31.8957 575.283
61.0299 -32.1484 575.209
60.7571 -32.3999 575.117
60.4876 -32.6528 575.053
61.0206 -32.4059 575.137
60.7487 -32.6577 575.052
60.4819 -32.9121 575.015
61.8147 -31.9006 575.196
66.3605 -28.6061 575.807
66.0728 -28.8537 575.604
66.3502 -28.8647 575.732
66.0657 -29.1135 575.556
66.3434 -29.1247 575.687
66.9305 -28.3708 576.176
67.2074 -28.3811 576.294
66.6396 -28.6176 575.949
66.9183 -28.6289 576.085
66.6283 -28.8759 575.865
64.977 -29.078 575.213
65.2459 -29.0855 575.271
65.5181 -29.0944 575.358
65.7923 -29.1042 575.461
64.7013 -29.3299 575.107
68.331 -28.1648 576.877
68.6066 -28.1742 576.978
68.5967 -28.4339 576.908
67.4774 -28.652 576.367
67.7575 -28.6636 576.51
67.1969 -28.6401 576.218
68.035 -28.6741 576.63
68.0276 -28.9346 576.582
69.982 -28.4835 577.456
69.4254 -28.4628 577.22
69.705 -28.4737 577.349
69.1465 -28.4521 577.095
69.4153 -28.7226 577.15
69.6932 -28.7329 577.266
70.5389 -28.5039 577.689
70.5253 -28.7627 577.591
71.0896 -28.7861 577.88
68.8713 -28.4429 577
68.8629 -28.7032 576.943
69.137 -28.7121 577.03
71.6979 -28.0328 578.478
71.9713 -28.3053 578.558
72.2594 -28.3188 578.743
72.55 -28.3332 578.945
71.6825 -28.2915 578.367
71.9579 -28.5648 578.464
72.5359 -28.5927 578.846
70.2462 -28.7521 577.469
69.9702 -28.7427 577.372
70.2348 -29.0115 577.389
73.4198 -28.3752 579.526
73.7095 -28.3889 579.714
73.1294 -28.3611 579.331
72.8535 -28.0874 579.236
72.8398 -28.3473 579.14
73.1168 -28.6214 579.244
29.2661 -52.2433 593.174
29.0112 -52.5202 593.37
29.2663 -52.5128 593.21
28.509 -53.6286 593.997
28.5099 -53.8999 594.049
28.0507 -54.556 595.541
28.2814 -54.4992 594.845
28.5122 -54.174 594.13
28.5136 -54.4464 594.192
28.7568 -53.6067 593.678
29.0106 -53.0578 593.424
29.0101 -53.3262 593.445
29.0082 -53.5921 593.44
28.7551 -53.873 593.675
29.2654 -52.7804 593.223
29.2636 -53.0464 593.219
27.8098 -54.5939 596.032
26.8075 -54.4028 597.178
27.5617 -54.6181 596.373
27.0568 -54.6508 596.883
27.5598 -54.8852 596.367
26.8029 -54.6645 597.11
27.3094 -54.9055 596.664
27.056 -54.9201 596.9
27.808 -54.8609 596.026
28.0527 -54.8303 595.617
28.2861 -54.7785 594.978
28.5159 -54.7204 594.271
25.7684 -54.6829 597.619
26.5456 -54.6717 597.266
26.2858 -54.6739 597.366
26.0255 -54.6749 597.454
25.7656 -54.9484 597.591
25.2794 -55.8416 598.702
25.5189 -55.5223 598.076
25.7632 -55.2146 597.572
25.0426 -56.1688 599.406
25.2779 -56.1102 598.703
25.5198 -55.7959 598.135
25.0432 -56.4424 599.458
25.7622 -55.4837 597.585
24.5446 -56.4994 600.217
24.2899 -56.7893 600.514
24.7961 -56.4755 599.886
24.5423 -56.7667 600.198
24.2872 -57.0557 600.485
22.9991 -56.5652 601.376
23.25 -56.8104 601.043
22.9925 -56.8222 601.245
23.5084 -57.0739 600.906
23.2456 -57.0726 600.969
24.7943 -56.744 599.882
23.7704 -57.0735 600.825
24.0305 -57.0686 600.698
23.7671 -57.3386 600.783
23.5053 -57.3396 600.87
22.3999 -56.2169 606.569
22.3921 -56.473 606.401
22.7083 -52.7395 607.109
22.4468 -53.5747 607.408
22.4533 -53.3143 607.541
22.7143 -52.4779 607.228
22.7204 -52.2163 607.348
22.459 -53.0519 607.651
22.1706 -54.6508 607.354
22.1651 -54.9129 607.245
22.16 -55.1761 607.15
22.1575 -55.4458 607.126
22.1766 -54.3896 607.474
22.1541 -55.713 607.075
22.1834 -54.1303 607.617
22.1505 -55.9799 607.021
22.1465 -56.2456 606.955
22.1907 -53.8721 607.774
32.9891 -49.0467 588.8
32.7428 -49.5981 589.136
32.7453 -49.8692 589.21
32.7487 -50.1417 589.299
32.9914 -49.3173 588.869
32.992 -49.5854 588.908
33.4972 -48.7697 588.497
33.2404 -49.3048 588.642
31.7608 -51.0134 590.496
32.0079 -50.9958 590.215
31.5115 -51.2958 590.768
31.0127 -51.8619 591.322
30.7665 -52.151 591.665
31.2624 -51.8472 591.078
31.7592 -51.2787 590.494
31.5117 -51.5642 590.802
31.0144 -52.1331 591.384
30.7664 -52.4194 591.693
31.511 -51.8312 590.819
31.2617 -52.1143 591.095
32.7487 -50.4092 589.328
32.5015 -50.6929 589.623
32.2549 -50.9783 589.935
32.0062 -51.2609 590.212
32.7483 -50.676 589.349
32.4999 -50.9581 589.624
32.253 -51.243 589.929
29.7712 -52.489 592.787
29.5194 -52.502 593.011
29.7684 -52.7531 592.762
30.5179 -52.4369 591.968
30.2675 -52.7201 592.238
30.0184 -52.7373 592.508
30.015 -53.0002 592.472
30.5171 -52.7042 591.983
30.2646 -52.9838 592.212
44.2507 -41.5803 580.725
43.9981 -41.8458 580.85
45.0029 -41.0429 580.303
44.7511 -41.3088 580.436
44.4988 -41.5744 580.563
43.7429 -42.109 580.941
44.2463 -41.8399 580.688
45.2538 -40.7762 580.159
43.9907 -42.1026 580.773
43.4902 -42.3747 581.067
43.2437 -42.3825 581.255
43.7371 -42.3673 580.885
42.9957 -42.3891 581.424
42.749 -42.397 581.613
43.2377 -42.6407 581.195
43.4851 -42.6336 581.019
42.9901 -42.6476 581.37
42.7416 -42.6538 581.533
42.4906 -42.6575 581.664
41.9965 -42.4089 582.017
42.2389 -42.6606 581.786
42.4826 -42.9135 581.576
41.9832 -42.6597 581.854
41.7442 -42.4115 582.132
41.2307 -42.6721 582.263
41.4802 -42.6665 582.106
41.7302 -42.6615 581.959
40.7044 -43.1835 582.234
40.4554 -43.7186 582.444
40.6955 -43.4383 582.129
40.2075 -43.9909 582.65
40.6925 -43.6994 582.108
40.4513 -43.9785 582.407
40.2042 -44.2518 582.625
39.9657 -44.5348 582.969
39.9748 -44.8096 583.124
40.2028 -44.5147 582.627
40.2091 -44.7862 582.74
39.9862 -45.0873 583.314
41.2111 -42.916 582.009
41.4628 -42.9128 581.885
39.9925 -45.3593 583.429
39.752 -45.3763 583.726
39.5107 -45.3928 584.017
39.2651 -45.6696 584.269
39.7536 -45.6432 583.774
39.0147 -45.9413 584.453
38.7637 -46.2124 584.628
39.511 -45.6582 584.045
39.2624 -45.9317 584.252
39.0119 -46.2033 584.434
37.2775 -47.0719 585.956
36.5364 -47.3747 586.671
36.7855 -47.3649 586.471
37.5228 -47.3238 585.729
37.2755 -47.3354 585.949
38.2682 -46.7634 585.085
38.0169 -47.035 585.262
38.5174 -46.4895 584.877
37.7691 -47.3112 585.494
38.5159 -46.7531 584.878
38.2649 -47.0249 585.058
37.5194 -47.5854 585.7
38.0151 -47.2984 585.257
37.7672 -47.5746 585.489
36.2867 -47.6502 586.888
36.5361 -47.6404 586.69
37.0315 -47.3512 586.224
36.7825 -47.6271 586.448
37.0278 -47.6125 586.19
38.7649 -46.4792 584.67
35.7836 -47.9307 587.243
36.0353 -47.9237 587.08
36.2843 -47.9133 586.875
35.7841 -48.1978 587.277
35.5311 -48.4697 587.446
34.2654 -49.0314 588.227
34.0054 -49.0275 588.258
34.5187 -49.2925 588.108
34.2587 -49.2886 588.139
33.4929 -49.0306 588.451
33.748 -49.0273 588.334
35.7826 -48.4622 587.277
35.5308 -48.7359 587.467
34.5121 -49.5499 588.022
35.5282 -48.999 587.451
58.8978 -33.659 574.89
57.8101 -34.1368 574.478
57.2845 -34.3857 574.446
57.0226 -34.6415 574.447
56.2448 -34.8898 574.493
56.5008 -34.8923 574.45
56.7592 -34.8962 574.431
57.28 -34.6448 574.418
57.5407 -34.3882 574.404
57.0194 -34.9013 574.43
58.0711 -34.1422 574.483
57.5342 -34.6462 574.356
58.6185 -33.9055 574.724
59.1603 -33.665 574.906
55.9769 -35.1415 574.43
56.2345 -35.1451 574.403
55.4614 -35.3959 574.494
55.209 -35.6573 574.589
55.4557 -35.6539 574.451
55.9654 -35.396 574.328
54.9709 -35.9282 574.835
55.213 -35.9217 574.648
54.7359 -36.2014 575.115
54.9779 -36.1946 574.925
54.7356 -36.4631 575.128
58.8826 -33.9124 574.757
58.3348 -34.149 574.514
58.6009 -34.1572 574.567
59.4188 -33.6685 574.881
59.6877 -33.4158 574.942
59.9545 -33.1617 574.982
60.2206 -32.9071 575.014
60.2155 -33.1666 574.98
59.9476 -33.4201 574.931
59.6764 -33.6716 574.849
64.1555 -29.8359 574.942
64.4273 -29.5825 575.015
63.3604 -30.6048 574.899
63.1024 -30.8643 574.948
62.846 -31.1246 575.011
45.9689 -39.9445 579.261
46.2101 -40.1967 579.041
47.4266 -40.1529 578.005
47.6731 -40.1472 577.842
47.9202 -40.142 577.686
48.1623 -40.1327 577.472
45.7286 -39.9563 579.512
45.7323 -40.2229 579.58
45.4968 -40.5027 579.916
45.738 -40.4913 579.672
48.3975 -40.1178 577.178
48.1423 -40.3786 577.252
45.4979 -40.7672 579.95
45.2487 -41.0352 580.113
44.9985 -41.3024 580.266
44.7461 -41.5678 580.391
44.4938 -41.8334 580.518
53.728 -37.2503 575.528
52.4346 -38.0144 575.653
52.1787 -38.274 575.715
51.9207 -38.532 575.754
52.4296 -38.2729 575.616
52.1719 -38.531 575.658
52.6886 -38.0155 575.588
52.9454 -38.0187 575.554
53.2059 -37.7623 575.541
51.4042 -38.7855 575.806
51.6589 -38.7871 575.75
51.9113 -38.7871 575.667
51.1424 -39.0405 575.801
50.6283 -39.2956 575.88
50.374 -39.2942 575.94
50.8821 -39.2966 575.813
49.8548 -39.5452 575.959
48.3711 -40.3583 576.882
54.2348 -36.9897 575.368
53.9794 -37.2496 575.435
53.7204 -37.5071 575.464
53.4595 -37.7632 575.473
53.1989 -38.0194 575.483
53.713 -37.764 575.402
49.3358 -39.7961 575.978
48.8385 -40.0646 576.25
50.1085 -39.5461 575.891
50.3634 -39.5479 575.837
51.3968 -39.0419 575.741
51.1366 -39.2981 575.754
49.5863 -39.7945 575.873
49.0767 -40.0528 576
48.5911 -40.331 576.412
48.3478 -40.6011 576.623
48.8237 -40.3144 576.094
49.3212 -40.0462 575.825
49.8407 -39.7959 575.814
54.4858 -36.7267 575.254
54.728 -36.7199 575.065
54.4773 -36.9829 575.181
54.2256 -37.2454 575.287
63.6134 -30.6052 574.819
63.8765 -30.3481 574.816
63.3541 -30.8642 574.857
63.0961 -31.1236 574.905
64.1441 -30.093 574.853
63.8678 -30.6064 574.753
64.6895 -29.5872 575.016
62.5857 -31.383 575.038
62.3223 -31.6398 575.037
62.8356 -31.3819 574.93
62.0771 -31.6433 575.188
62.5694 -31.6372 574.903
62.306 -31.8939 574.901
64.9661 -29.3357 575.131
61.5505 -32.1569 575.187
61.2809 -32.4101 575.126
61.0094 -32.6622 575.046
60.7408 -32.9157 574.992
61.2666 -32.6649 575.006
61.5344 -32.4108 575.051
60.9974 -32.9181 574.948
60.4755 -33.1709 574.969
60.7318 -33.1731 574.922
62.0617 -31.8979 575.061
61.7991 -32.1549 575.066
62.0422 -32.1502 574.895
61.7794 -32.407 574.897
66.6219 -29.1362 575.824
66.0628 -29.3752 575.545
66.3398 -29.3862 575.67
65.7876 -29.365 575.434
66.0566 -29.6353 575.505
66.3348 -29.647 575.641
66.9015 -29.4113 575.982
64.9567 -29.5941 575.061
65.5107 -29.3539 575.308
65.504 -29.6137 575.263
65.7803 -29.6245 575.384
68.5882 -28.6941 576.851
68.5821 -28.9553 576.814
67.7482 -28.9232 576.445
67.745 -29.1853 576.432
68.027 -29.1979 576.59
68.035 -29.4649 576.671
67.7499 -29.4509 576.487
69.4077 -28.9833 577.1
69.1319 -28.9738 577
69.6829 -28.9926 577.193
69.4031 -29.2453 577.075
69.9592 -29.0022 577.295
69.6751 -29.2533 577.142
70.5135 -29.022 577.507
70.7943 -29.0334 577.642
70.5052 -29.2828 577.453
71.0766 -29.0452 577.787
71.3738 -28.7986 578.038
71.3609 -29.0579 577.947
71.3503 -29.318 577.874
71.6585 -28.8112 578.199
68.857 -28.9646 576.908
68.8587 -29.2291 576.935
69.1312 -29.2373 577.008
71.6708 -28.5514 578.285
71.9467 -28.8251 578.387
72.5257 -28.8536 578.778
72.8266 -28.6072 579.048
72.8169 -28.8685 578.984
71.9337 -29.0845 578.295
72.5127 -29.1133 578.687
72.8044 -29.1285 578.897
70.2265 -29.2722 577.334
69.9492 -29.2621 577.226
73.4052 -28.6348 579.423
73.6919 -28.6476 579.589
73.3922 -28.8951 579.334
73.6776 -28.9074 579.49
73.1063 -28.8825 579.174
29.5178 -52.7682 593.01
28.7536 -54.1397 593.677
28.0547 -55.1046 595.693
28.2908 -55.0575 595.108
28.5204 -54.9989 594.398
28.7537 -54.4094 593.712
28.7537 -54.6789 593.745
29.0048 -53.855 593.401
29.2631 -53.3147 593.241
29.2599 -53.5782 593.209
29.2565 -53.8412 593.171
29.0015 -54.1183 593.366
29.5158 -53.0338 593.001
29.5133 -53.2983 592.982
27.809 -55.1334 596.081
26.7997 -54.9291 597.075
27.5602 -55.1566 596.408
27.3086 -55.1747 596.681
26.5406 -54.9325 597.188
26.7969 -55.1944 597.047
27.0548 -55.1886 596.908
27.8081 -55.4023 596.096
28.0545 -55.3746 595.721
28.2971 -55.3401 595.274
28.5264 -55.2806 594.558
28.7533 -54.9479 593.77
26.0205 -54.9357 597.376
26.2802 -54.9334 597.275
26.5358 -55.1937 597.116
26.0165 -55.1984 597.32
25.2773 -56.3807 598.726
25.5195 -56.0668 598.164
25.7627 -55.7563 597.634
26.0128 -55.4619 597.273
25.0425 -56.7131 599.479
25.2794 -56.6575 598.815
25.5188 -56.3369 598.185
25.5197 -56.6106 598.243
25.7633 -56.029 597.685
25.0431 -56.9867 599.53
26.0121 -55.7315 597.292
24.541 -57.0365 600.207
24.2841 -57.3212 600.448
24.7926 -57.0125 599.877
24.0269 -57.3329 600.646
24.5382 -57.3025 600.176
24.2821 -57.5893 600.437
22.7422 -56.8523 601.64
22.9876 -57.0831 601.156
22.7362 -57.1107 601.523
23.2428 -57.3389 600.938
22.9826 -57.3439 601.067
23.5033 -57.6078 600.859
23.2402 -57.6057 600.913
24.7903 -57.2797 599.86
23.7658 -57.6084 600.789
24.025 -57.6014 600.639
23.5021 -57.8778 600.867
22.1421 -56.5101 606.877
22.1343 -56.7659 606.707
22.117 -56.9971 606.277
22.463 -52.7855 607.717
22.1976 -53.6127 607.918
22.2042 -53.3524 608.054
22.7268 -51.9552 607.476
22.4688 -52.5232 607.831
22.475 -52.2617 607.956
22.7322 -51.6917 607.577
22.4819 -52.0016 608.097
22.2092 -53.0883 608.147
21.9081 -54.9326 607.542
21.9163 -54.6771 607.725
21.9016 -55.1924 607.406
21.898 -55.4591 607.349
21.8945 -55.7262 607.296
21.924 -54.4204 607.896
21.8916 -55.9948 607.261
21.9316 -54.163 608.062
21.8877 -56.2607 607.197
21.8837 -56.5264 607.13
21.9399 -53.907 608.246
33.2405 -49.572 588.671
32.9929 -49.854 588.953
32.9946 -50.1239 589.012
32.9963 -50.3938 589.071
33.2394 -49.8375 588.681
33.4907 -49.2943 588.44
33.4876 -49.5568 588.413
32.0032 -51.5239 590.186
31.7587 -51.5459 590.514
31.0146 -52.4018 591.418
30.7659 -52.6871 591.714
31.5095 -52.0969 590.82
31.2621 -52.3834 591.133
31.757 -51.8111 590.513
31.0127 -52.667 591.412
30.7626 -52.95 591.681
31.7541 -52.0744 590.488
31.5075 -52.3617 590.812
31.2591 -52.6465 591.105
32.9955 -50.6597 589.083
32.7461 -50.94 589.337
32.4984 -51.2233 589.625
32.2485 -51.5035 589.875
32.0002 -51.7869 590.159
32.9912 -50.9205 589.035
32.7417 -51.2006 589.287
32.491 -51.479 589.518
29.7661 -53.0181 592.75
29.7628 -53.2812 592.714
30.515 -52.9691 591.972
30.2603 -53.245 592.159
30.0109 -53.2618 592.423
30.5107 -53.2305 591.92
44.2395 -42.0973 580.62
45.2444 -41.2949 580.079
44.993 -41.561 580.215
44.7413 -41.8271 580.35
43.9855 -42.3615 580.726
43.7317 -42.6259 580.834
44.4855 -42.0893 580.43
45.4946 -41.0278 579.929
44.2326 -42.3544 580.549
43.9806 -42.6206 580.682
43.4787 -42.8913 580.956
43.7271 -42.8852 580.794
42.9817 -42.9033 581.278
42.7333 -42.9095 581.441
43.2296 -42.8966 581.107
42.228 -42.9137 581.657
41.9724 -42.9129 581.726
42.4746 -43.1695 581.488
42.2195 -43.1692 581.562
42.7269 -43.1671 581.376
41.7162 -42.9113 581.785
40.6938 -43.9651 582.15
40.4464 -44.2376 582.359
40.9332 -43.6842 581.827
40.9357 -43.9512 581.886
40.6921 -44.2276 582.148
40.4436 -44.499 582.342
40.2188 -45.0617 582.904
40.2282 -45.3369 583.063
40.4453 -44.7653 582.389
40.4503 -45.0353 582.483
40.4581 -45.3085 582.619
39.9939 -45.6257 583.472
41.4479 -43.1615 581.698
41.7037 -43.1626 581.633
41.4395 -43.4168 581.602
40.2328 -45.6069 583.153
39.9921 -45.8885 583.468
39.7513 -45.9056 583.763
39.5073 -45.919 584.013
39.2595 -46.1935 584.233
39.7468 -46.1654 583.72
39.0097 -46.466 584.426
39.5029 -46.1791 583.971
39.2564 -46.4551 584.21
37.2727 -47.5977 585.929
36.7801 -47.8902 586.436
37.5156 -47.8464 585.665
38.5127 -47.0148 584.853
38.2591 -47.2834 584.994
38.0115 -47.5596 585.227
38.7631 -46.7425 584.667
37.7623 -47.8342 585.438
38.7583 -47.0021 584.618
38.5064 -47.2725 584.781
37.2676 -47.8571 585.874
38.2537 -47.5422 584.934
38.007 -47.8196 585.182
36.5325 -47.902 586.658
36.2811 -48.1754 586.848
37.023 -47.8724 586.139
39.0081 -46.7294 584.425
36.0352 -48.19 587.104
36.5277 -48.162 586.606
36.2798 -48.44 586.853
36.0325 -48.4529 587.086
35.7791 -48.7241 587.247
33.9996 -49.2859 588.184
33.7434 -49.2875 588.281
34.253 -49.5473 588.068
34.5043 -49.8056 587.917
33.9942 -49.5449 588.118
36.029 -48.7145 587.054
35.777 -48.9878 587.238
35.525 -49.2612 587.424
34.2446 -49.802 587.952
34.7629 -49.8076 587.864
34.4961 -50.0605 587.803
35.773 -49.2488 587.198
59.145 -33.9183 574.773
58.3183 -34.4012 574.367
57.276 -34.9042 574.393
56.4922 -35.1487 574.379
56.7541 -35.1549 574.396
57.0132 -35.1593 574.384
57.5275 -34.9039 574.305
57.2695 -35.162 574.344
58.5852 -34.41 574.429
57.7781 -34.9031 574.208
57.5217 -35.1621 574.263
58.866 -34.1648 574.61
59.4052 -33.9229 574.765
56.224 -35.4002 574.312
56.4858 -35.4064 574.33
55.4537 -35.9144 574.447
55.4536 -36.176 574.462
55.9582 -35.653 574.27
56.2186 -35.6585 574.273
55.957 -35.914 574.274
55.2145 -36.1844 574.68
54.9747 -36.4544 574.908
55.2111 -36.444 574.661
54.9672 -36.7112 574.846
54.7185 -36.9755 574.982
59.13 -34.1717 574.642
58.851 -34.4181 574.48
59.6637 -33.9266 574.742
59.9356 -33.6756 574.831
60.2074 -33.4244 574.918
60.4654 -33.4276 574.889
60.1979 -33.6813 574.843
59.9248 -33.9317 574.743
64.6792 -29.845 574.939
63.6084 -30.8652 574.789
63.3487 -31.1239 574.822
63.0887 -31.3824 574.852
45.9733 -40.2116 579.336
45.979 -40.4799 579.428
46.2125 -40.4621 579.092
46.4483 -40.4464 578.787
46.22 -40.7318 579.205
46.4514 -40.7122 578.845
47.4106 -40.4021 577.83
47.6567 -40.396 577.663
47.9024 -40.3897 577.491
47.645 -40.6487 577.54
47.8883 -40.6403 577.34
45.7435 -40.7596 579.762
45.9838 -40.7474 579.508
45.7415 -41.0213 579.757
48.124 -40.6256 577.051
47.8749 -40.8913 577.197
45.4923 -41.2892 579.919
45.2388 -41.5533 580.028
44.9876 -41.8197 580.167
44.7322 -42.0822 580.252
53.9719 -37.5065 575.373
52.684 -38.2742 575.555
52.425 -38.5315 575.582
52.1649 -38.7879 575.598
52.6753 -38.5299 575.478
52.4159 -38.7868 575.5
52.9362 -38.2741 575.471
53.1887 -38.2741 575.39
53.4522 -38.0201 575.411
51.6482 -39.0411 575.647
51.9002 -39.0407 575.561
52.1541 -39.0418 575.496
51.3874 -39.2968 575.654
50.6185 -39.5499 575.785
50.8731 -39.5516 575.729
51.1274 -39.553 575.668
50.0953 -39.7976 575.757
48.1084 -40.8748 576.883
54.4667 -37.2377 575.085
54.2143 -37.4996 575.184
53.9608 -37.7608 575.271
53.7018 -38.018 575.299
53.4414 -38.2744 575.312
53.9469 -38.013 575.14
49.572 -40.0449 575.725
49.0629 -40.3034 575.856
48.5744 -40.5792 576.232
48.8092 -40.5644 575.941
50.3497 -39.7991 575.699
50.6055 -39.8018 575.656
51.639 -39.2961 575.563
51.3788 -39.5522 575.575
49.8243 -40.0447 575.643
49.3089 -40.2981 575.7
49.0504 -40.555 575.728
48.3291 -40.8476 576.419
48.0957 -41.1263 576.75
48.3162 -41.0987 576.284
48.7962 -40.8155 575.806
48.5574 -40.827 576.049
49.5547 -40.2927 575.542
50.0811 -40.0482 575.613
54.9601 -36.9683 574.788
54.7074 -37.2298 574.882
54.4531 -37.4903 574.959
63.8662 -30.8681 574.753
63.6049 -31.126 574.772
63.3451 -31.3846 574.804
64.6696 -30.1031 574.869
64.1269 -30.8722 574.743
63.8671 -31.1309 574.775
64.9475 -29.8525 574.995
62.8221 -31.6375 574.821
62.5546 -31.8921 574.782
63.082 -31.6414 574.805
62.813 -31.8953 574.753
62.2889 -32.1474 574.758
62.5425 -32.1482 574.686
61.5195 -32.6653 574.927
61.2534 -32.9201 574.897
60.9877 -33.1752 574.872
61.5041 -32.9194 574.798
61.7615 -32.6599 574.746
61.239 -33.1747 574.778
60.7219 -33.43 574.844
60.9736 -33.4297 574.754
62.0227 -32.4024 574.729
62.2697 -32.3998 574.596
62.0026 -32.6541 574.558
66.3298 -29.9077 575.61
65.7719 -29.8836 575.325
66.0493 -29.895 575.455
66.611 -29.9206 575.771
66.324 -30.1681 575.575
66.8986 -29.6732 575.971
67.1835 -29.4242 576.145
67.1821 -29.6869 576.147
66.8946 -29.9346 575.95
67.1793 -29.9489 576.137
64.9377 -30.1106 574.922
65.4947 -29.8722 575.195
65.485 -30.1305 575.125
68.5831 -29.2194 576.835
68.5902 -29.4862 576.909
68.3151 -29.4767 576.812
67.7539 -29.7161 576.535
68.038 -29.7298 576.711
68.3167 -29.741 576.839
67.7523 -29.979 576.536
67.4667 -29.9644 576.345
69.403 -29.5092 577.088
69.6718 -29.5159 577.128
69.1341 -29.5025 577.047
69.6741 -29.7808 577.161
70.7852 -29.2939 577.581
71.3427 -29.5793 577.826
71.646 -29.0707 578.112
71.6346 -29.3306 578.033
71.6267 -29.5919 577.982
71.6204 -29.8538 577.945
68.8633 -29.4948 576.987
72.2093 -29.3581 578.394
72.4993 -29.3728 578.593
72.7918 -29.3885 578.81
72.1973 -29.618 578.311
72.4877 -29.633 578.514
72.7811 -29.6491 578.739
29.0006 -54.3859 593.379
28.0541 -55.6444 595.748
28.2981 -55.6124 595.329
28.5296 -55.5568 594.657
28.7531 -55.217 593.798
28.9971 -54.6488 593.341
28.9921 -54.9087 593.271
29.2535 -54.105 593.143
29.5109 -53.5633 592.967
29.5078 -53.8268 592.936
29.5058 -54.0921 592.926
29.2514 -54.3703 593.133
29.7604 -53.546 592.699
27.5596 -55.4262 596.43
27.8063 -55.6694 596.092
26.7938 -55.4592 597.014
27.3073 -55.4429 596.686
27.5571 -55.6921 596.411
27.0524 -55.4548 596.891
27.305 -55.7092 596.671
26.2746 -55.1928 597.183
26.5321 -55.4571 597.068
27.0485 -55.7178 596.839
27.8041 -55.9357 596.079
28.0523 -55.9113 595.743
28.2978 -55.8822 595.356
28.5312 -55.8298 594.722
28.755 -55.4903 593.87
28.9861 -55.1666 593.179
26.2704 -55.4551 597.123
26.5286 -55.721 597.026
25.2844 -56.9408 598.97
25.5242 -56.8924 598.385
25.7648 -56.3038 597.756
26.0125 -56.0038 597.339
26.2691 -55.7234 597.129
25.0422 -57.2571 599.547
25.2875 -57.2199 599.082
25.528 -57.1727 598.511
25.766 -56.5778 597.819
25.7684 -56.8547 597.912
26.0131 -56.2764 597.389
25.042 -57.5289 599.579
26.2671 -55.9904 597.12
24.5363 -57.5708 600.168
24.7893 -57.55 599.874
24.2815 -57.8608 600.463
24.5355 -57.8416 600.186
24.0241 -57.8721 600.656
22.7309 -57.3706 601.424
22.4919 -57.1568 602.085
22.4836 -57.4092 601.905
22.9798 -57.6101 601.036
22.726 -57.6316 601.337
23.2383 -57.8741 600.905
22.9774 -57.8773 601.014
23.7641 -57.8774 600.787
23.501 -58.1483 600.881
23.7632 -58.1482 600.804
23.2379 -58.1462 600.935
21.8802 -56.7933 607.078
21.8723 -57.0486 606.903
21.8568 -57.2839 606.516
21.5974 -57.5734 606.783
21.6082 -57.3263 607.043
22.2155 -52.8272 608.276
21.9479 -53.6505 608.426
21.9562 -53.3944 608.611
22.7377 -51.4285 607.682
22.487 -51.7374 608.193
22.7434 -51.1657 607.793
22.2223 -52.5671 608.418
22.2292 -52.3073 608.565
22.4919 -51.4726 608.283
22.7493 -50.9029 607.906
22.2364 -52.0479 608.719
21.9626 -53.1334 608.743
21.6484 -54.946 607.768
21.6407 -55.2025 607.596
21.6583 -54.6949 608.001
21.6361 -55.4668 607.512
21.6321 -55.7326 607.444
21.6288 -56.0002 607.398
21.6684 -54.4443 608.242
21.626 -56.2691 607.364
21.6777 -54.1912 608.457
21.6227 -56.5365 607.316
21.6198 -56.8048 607.278
21.6886 -53.942 608.719
33.4862 -49.8216 588.416
33.2393 -50.1045 588.707
33.2405 -50.3734 588.755
33.2401 -50.6399 588.775
33.4843 -50.0858 588.41
33.7386 -49.5474 588.225
33.7343 -49.808 588.177
31.9945 -52.0455 590.084
31.0095 -52.9299 591.38
30.7593 -53.2128 591.648
31.7503 -52.3361 590.447
31.5047 -52.6251 590.788
31.2556 -52.9089 591.069
31.0065 -53.1933 591.354
31.746 -52.597 590.396
31.5 -52.8855 590.731
31.2525 -53.1719 591.04
33.2334 -50.8969 588.685
32.9814 -51.1727 588.888
32.4794 -51.7282 589.336
32.2407 -51.7587 589.761
32.2319 -52.0122 589.629
31.9863 -52.3 589.962
32.7298 -51.4494 589.101
30.0073 -53.5244 592.383
29.7573 -53.8093 592.668
30.2562 -53.5066 592.11
30.5064 -53.4916 591.867
30.0057 -53.7903 592.382
30.7543 -53.4727 591.582
44.4794 -42.3473 580.371
44.2284 -42.6142 580.515
45.4865 -41.5475 579.866
45.2339 -41.8124 579.985
44.9792 -42.0754 580.078
43.9748 -42.8787 580.626
43.7218 -43.1439 580.746
44.7247 -42.3388 580.175
44.4741 -42.6059 580.323
45.7382 -41.2818 579.735
44.2241 -42.8738 580.48
43.4722 -43.1487 580.889
43.2238 -43.1549 581.052
43.9698 -43.1376 580.581
42.9756 -43.1612 581.216
42.9689 -43.4185 581.147
42.7202 -43.4244 581.306
43.2176 -43.4125 580.988
41.9624 -43.1667 581.609
42.4687 -43.4276 581.429
42.2138 -43.4274 581.506
41.9553 -43.4235 581.532
42.7142 -43.6824 581.247
40.9382 -44.218 581.943
40.6881 -44.4876 582.113
41.1834 -43.9436 581.706
41.433 -43.6741 581.533
41.1871 -44.2117 581.78
41.4357 -43.9411 581.593
40.9372 -44.4812 581.951
40.6854 -44.7489 582.097
40.4661 -45.5821 582.756
40.2352 -45.8744 583.21
40.6872 -45.0152 582.146
40.6921 -45.285 582.237
40.7027 -45.5612 582.411
40.7124 -45.8367 582.573
39.9913 -46.1526 583.48
41.6961 -43.4188 581.55
41.6929 -43.6795 581.526
40.4748 -45.8565 582.904
40.2346 -46.1386 583.224
40.4796 -46.1267 582.996
39.9878 -46.4135 583.451
39.7419 -46.4247 583.671
39.5003 -46.4412 583.957
39.2516 -46.7147 584.162
39.0033 -46.9889 584.375
39.4951 -46.7002 583.903
36.7739 -48.1483 586.362
37.0199 -48.1345 586.116
37.5107 -48.1059 585.612
37.2648 -48.1195 585.855
37.7572 -48.0935 585.383
38.7527 -47.2607 584.557
38.5009 -47.5313 584.722
38.25 -47.8032 584.903
38.0004 -48.077 585.105
38.9958 -47.2452 584.288
38.7473 -47.5195 584.499
37.2615 -48.3811 585.828
38.4967 -47.7915 584.682
38.2456 -48.0632 584.86
36.5229 -48.4218 586.554
36.2756 -48.7008 586.811
37.0155 -48.3948 586.071
39.2459 -46.9731 584.101
36.7686 -48.4074 586.302
36.5202 -48.6846 586.537
36.0247 -48.9752 587.01
33.9877 -49.8024 588.034
34.2373 -50.0581 587.853
34.7556 -50.0639 587.766
36.2708 -48.9607 586.758
36.022 -49.2379 586.991
35.7693 -49.5102 587.163
35.7648 -49.7704 587.115
33.9819 -50.0607 587.961
34.747 -50.3182 587.647
34.4885 -50.3162 587.701
34.2312 -50.3159 587.775
36.0169 -49.4973 586.934
59.3914 -34.1771 574.647
58.3047 -34.655 574.249
58.5706 -34.6633 574.302
58.8396 -34.6733 574.384
56.7475 -35.4125 574.345
57.0055 -35.4163 574.322
57.2603 -35.4181 574.268
57.7683 -35.1589 574.126
57.5098 -35.4166 574.16
59.1178 -34.4267 574.539
57.7593 -35.4151 574.052
59.6529 -34.1825 574.653
56.4797 -35.6643 574.284
56.2138 -35.9171 574.241
56.7393 -35.6691 574.278
55.7024 -36.1739 574.346
55.4553 -36.4388 574.496
55.7021 -36.4354 574.36
55.4533 -36.6992 574.492
55.9536 -36.1735 574.256
56.4726 -35.9215 574.228
56.2082 -36.1751 574.2
55.9525 -36.4344 574.261
55.2084 -36.7039 574.649
55.2024 -36.9617 574.603
54.9508 -37.2238 574.707
59.3827 -34.4341 574.578
59.108 -34.6829 574.459
59.9144 -34.1879 574.659
60.1854 -33.9364 574.739
60.4565 -33.6848 574.819
60.7105 -33.6859 574.751
60.4436 -33.9398 574.711
60.1736 -34.1919 574.641
64.9262 -30.3678 574.835
63.6054 -31.3886 574.791
63.3434 -31.6461 574.803
45.9842 -41.0112 579.534
46.2227 -40.9975 579.259
46.4587 -40.9817 578.956
46.6836 -40.6935 578.499
46.6889 -40.9612 578.585
46.2232 -41.2613 579.286
46.4631 -41.2488 579.03
46.6954 -41.2299 578.685
47.6356 -40.9032 577.445
47.6315 -41.1622 577.414
47.867 -41.1471 577.121
45.9832 -41.2737 579.541
45.7355 -41.5428 579.72
47.8597 -41.4033 577.053
45.4799 -41.8049 579.801
45.2262 -42.0688 579.906
44.9724 -42.3327 580.012
54.2 -37.7516 575.05
52.9265 -38.529 575.383
52.6665 -38.7855 575.399
52.4064 -39.0417 575.414
52.9202 -38.7864 575.332
52.6607 -39.0431 575.353
53.1809 -38.5304 575.322
53.4307 -38.5286 575.214
53.6889 -38.2709 575.178
51.8922 -39.2967 575.49
52.1445 -39.2965 575.407
52.3988 -39.298 575.348
51.6313 -39.5522 575.495
50.8619 -39.8049 575.62
51.1173 -39.8072 575.573
51.3685 -39.8062 575.478
50.3347 -40.0491 575.545
48.0866 -41.3807 576.659
54.6963 -37.4841 574.782
54.4383 -37.7419 574.82
54.1853 -38.0032 574.91
53.9329 -38.2649 575.007
53.6758 -38.5234 575.055
54.1705 -38.2546 574.77
49.8071 -40.2927 575.462
49.2928 -40.5468 575.53
49.0404 -40.8086 575.629
48.7893 -41.0716 575.743
50.5911 -40.0524 575.511
50.8488 -40.0565 575.489
51.8827 -39.5514 575.402
51.6219 -39.8069 575.408
50.0614 -40.2943 575.404
49.5382 -40.5411 575.369
49.2811 -40.7989 575.412
49.0333 -41.0645 575.564
48.3079 -41.3537 576.203
48.5448 -41.0784 575.919
48.0862 -41.6427 576.674
48.3061 -41.6143 576.201
48.5379 -41.3345 575.856
48.7824 -41.3277 575.681
49.7916 -40.5419 575.302
50.3165 -40.2965 575.356
55.1981 -37.2206 574.575
54.9427 -37.4801 574.639
54.6833 -37.737 574.662
64.1301 -31.1362 574.786
64.3894 -30.8773 574.749
63.8671 -31.3934 574.79
63.6047 -31.6507 574.799
65.2094 -30.1196 575.006
64.3929 -31.1414 574.794
63.0754 -31.9005 574.76
62.8013 -32.1517 574.661
63.3402 -31.9069 574.788
63.0663 -32.1582 574.692
62.5253 -32.4016 574.542
62.791 -32.4086 574.581
61.7461 -32.914 574.618
61.4873 -33.1726 574.656
61.2228 -33.4281 574.641
61.7311 -33.1682 574.493
61.9888 -32.909 574.445
61.4705 -33.4257 574.514
60.9597 -33.6842 574.638
61.2066 -33.6814 574.504
62.781 -32.6657 574.504
61.9762 -33.1644 574.343
66.6058 -30.1814 575.741
66.0428 -30.1549 575.413
66.3148 -30.4268 575.509
65.7639 -30.1427 575.27
66.0341 -30.4138 575.351
67.1747 -30.2102 576.112
67.4621 -30.2258 576.319
65.1977 -30.3768 574.917
65.1911 -30.6364 574.874
65.7541 -30.401 575.198
65.745 -30.6596 575.133
68.5927 -29.7511 576.943
68.8681 -29.7608 577.041
68.5878 -30.0127 576.916
68.3118 -30.0026 576.811
67.7467 -30.24 576.501
68.3029 -30.2624 576.75
67.7431 -30.5019 576.485
68.0231 -30.5141 576.626
69.4089 -29.7756 577.15
69.1404 -29.769 577.112
69.683 -30.0487 577.248
69.4146 -30.0421 577.211
69.9509 -30.055 577.28
69.6922 -30.3167 577.338
71.3373 -30.1059 577.809
71.0538 -30.0932 577.655
71.6177 -30.1172 577.936
71.9005 -30.1294 578.082
71.6193 -30.3824 577.962
71.3403 -30.3716 577.846
68.8651 -30.0233 577.03
72.1905 -29.8799 578.27
72.4809 -29.895 578.472
72.7738 -29.9111 578.693
72.1861 -30.1428 578.248
29.2447 -54.6271 593.029
28.0513 -56.1798 595.755
28.2962 -56.1494 595.356
28.5321 -56.1018 594.775
28.7533 -55.7567 593.867
28.9822 -55.4285 593.133
29.235 -54.878 592.863
29.5004 -54.3513 592.849
29.7541 -54.0726 592.635
29.7457 -54.3263 592.5
29.4909 -54.603 592.691
27.5538 -55.9562 596.373
27.8028 -56.2037 596.084
26.7895 -55.7213 596.954
27.3021 -55.9742 596.642
27.5528 -56.2248 596.385
27.0458 -55.9833 596.815
27.2984 -56.2376 596.597
26.5258 -55.9861 596.998
26.7865 -55.9861 596.921
28.0489 -56.4456 595.738
28.2962 -56.4197 595.389
28.5332 -56.374 594.83
28.5321 -56.6419 594.84
28.7524 -56.0245 593.88
28.756 -56.3013 593.988
28.9782 -55.6901 593.082
29.2253 -55.1289 592.698
26.5229 -56.251 596.968
25.2898 -57.4973 599.173
25.5318 -57.4533 598.638
25.7703 -57.1306 597.995
25.7739 -57.4103 598.114
26.0137 -56.5489 597.438
26.2653 -56.2578 597.116
25.0411 -57.7992 599.595
25.291 -57.7721 599.238
25.5349 -57.7322 598.748
25.7781 -57.6914 598.248
26.016 -56.8253 597.527
26.0185 -57.1021 597.62
26.2642 -56.5265 597.125
24.7888 -57.8215 599.902
25.0415 -58.0727 599.644
24.2815 -58.1336 600.501
24.5366 -58.1169 600.252
24.024 -58.1449 600.693
24.7892 -58.0949 599.948
22.4779 -57.6682 601.795
22.7228 -57.8969 601.294
22.238 -57.4531 602.441
22.2285 -57.7023 602.227
22.2214 -57.9575 602.077
22.4726 -57.9282 601.696
22.9762 -58.1474 601.024
22.721 -58.1657 601.289
23.4991 -58.4165 600.871
23.2358 -58.4139 600.92
23.762 -58.4183 600.813
23.497 -58.6845 600.859
24.0225 -58.4142 600.695
23.7601 -58.6866 600.804
22.9743 -58.4159 601.017
23.2327 -58.6794 600.883
21.6155 -57.0696 607.203
21.5838 -57.8129 606.446
21.344 -57.6039 607.182
21.3379 -57.8635 607.053
21.3271 -58.1099 606.789
21.349 -57.3413 607.279
21.3533 -57.0767 607.356
21.9697 -52.8742 608.897
21.6996 -53.6927 608.983
21.7101 -53.4419 609.232
22.4983 -51.2111 608.413
22.753 -50.6354 607.963
22.2419 -51.7843 608.824
22.5053 -50.9509 608.558
22.7586 -50.372 608.071
21.9776 -52.6167 609.072
22.2476 -51.5212 608.937
22.5101 -50.6855 608.644
21.9858 -52.3597 609.254
21.9939 -52.1023 609.435
21.388 -54.9581 607.98
21.3789 -55.2108 607.766
21.3991 -54.7102 608.249
21.3722 -55.4697 607.622
21.1266 -54.9677 608.164
21.3676 -55.7339 607.536
21.3643 -56.0012 607.486
21.3617 -56.2706 607.458
21.412 -54.4668 608.571
21.359 -56.5394 607.425
21.4235 -54.2194 608.853
21.3569 -56.8102 607.414
21.4365 -53.9754 609.176
33.7318 -50.0712 588.161
33.4835 -50.3516 588.424
33.4796 -50.6128 588.383
33.2217 -51.1461 588.505
33.7292 -50.3343 588.144
31.9791 -52.5559 589.858
31.0017 -53.4534 591.292
31.7397 -52.8544 590.307
31.4962 -53.1472 590.689
31.2484 -53.4333 590.993
31.7349 -53.1144 590.248
31.4918 -53.4079 590.635
33.4732 -50.8701 588.297
32.9676 -51.4184 588.67
32.7157 -51.6944 588.875
32.4668 -51.9755 589.136
32.4598 -52.2317 589.038
32.2213 -52.2627 589.465
32.2153 -52.5204 589.383
31.9744 -52.8158 589.799
30.2528 -53.7694 592.074
29.9993 -54.0477 592.287
30.4993 -53.7477 591.76
30.7469 -53.7283 591.47
30.2437 -54.0219 591.928
30.9941 -53.7086 591.176
44.718 -42.596 580.108
44.4694 -42.8651 580.282
45.7289 -41.8002 579.656
45.4747 -42.0636 579.755
45.2189 -42.3255 579.834
44.2165 -43.1301 580.401
43.9652 -43.3968 580.54
43.7158 -43.4018 580.687
43.4666 -43.407 580.835
44.965 -42.5892 579.935
44.7141 -42.8559 580.079
45.9801 -41.5343 579.521
44.4607 -43.1204 580.19
44.2094 -43.3869 580.328
42.9626 -43.676 581.083
43.209 -43.6677 580.894
42.4635 -43.6864 581.38
43.4584 -43.6627 580.748
42.2085 -43.6861 581.455
41.9518 -43.684 581.506
42.7059 -43.9378 581.155
42.4561 -43.9428 581.299
42.9545 -43.9318 580.996
41.1863 -44.475 581.792
40.9322 -44.74 581.903
41.4386 -44.2082 581.655
41.6919 -43.9426 581.535
41.4355 -44.4691 581.635
41.1814 -44.7339 581.745
41.6911 -44.2059 581.546
41.9497 -43.9458 581.498
40.9291 -45.0008 581.881
40.7208 -46.1108 582.716
40.2344 -46.4032 583.245
40.9314 -45.2676 581.936
40.9397 -45.5411 582.076
40.95 -45.8171 582.245
40.9575 -46.0899 582.375
40.7244 -46.3795 582.79
39.9842 -46.6743 583.422
40.4793 -46.3912 583.015
40.2319 -46.6652 583.231
40.4786 -46.6552 583.028
39.7388 -46.6861 583.649
39.9819 -46.9365 583.411
39.7351 -46.9468 583.618
39.4885 -46.9574 583.828
39.2391 -47.2301 584.023
37.5077 -48.3679 585.59
37.7523 -48.3529 585.331
37.5031 -48.6279 585.544
37.2582 -48.6428 585.802
37.9967 -48.3379 585.072
37.7491 -48.6145 585.306
38.9903 -47.5039 584.229
38.7445 -47.7814 584.481
38.4937 -48.0533 584.661
38.2412 -48.3232 584.816
37.993 -48.5988 585.039
39.2356 -47.4911 583.995
38.9885 -47.7668 584.224
38.7405 -48.0419 584.445
37.0106 -48.6543 586.018
38.4894 -48.3134 584.62
38.2379 -48.5846 584.79
36.7637 -48.6671 586.249
36.5143 -48.9429 586.468
39.484 -47.2172 583.786
36.76 -48.9282 586.214
36.2652 -49.2194 586.693
33.9792 -50.3235 587.941
35.0024 -50.3157 587.541
34.737 -50.5704 587.505
36.5084 -49.2011 586.397
36.2623 -49.4818 586.671
36.012 -49.757 586.88
36.0058 -50.0149 586.805
35.7489 -50.2811 586.906
35.5 -50.2923 587.114
33.9727 -50.5806 587.854
34.4803 -50.5709 587.587
34.9901 -50.5647 587.362
34.2254 -50.5741 587.702
36.2579 -49.742 586.625
59.6426 -34.4387 574.569
58.5574 -34.9173 574.188
58.5482 -35.1735 574.113
58.8283 -34.9285 574.289
59.0955 -34.9375 574.353
59.3713 -34.6895 574.484
56.9963 -35.6723 574.246
57.2472 -35.6717 574.153
57.4976 -35.6708 574.054
58.0129 -35.4162 573.986
57.7515 -35.672 573.991
58.2765 -35.4233 574.018
57.7455 -35.9299 573.947
59.9023 -34.443 574.558
56.7325 -35.9266 574.226
56.4672 -36.1797 574.189
56.986 -35.9275 574.158
55.7033 -36.6979 574.388
55.4521 -36.9601 574.496
55.9571 -36.6991 574.324
56.2069 -36.436 574.203
55.7079 -36.9627 574.453
56.7251 -36.1835 574.167
56.4631 -36.4387 574.163
56.2106 -36.7 574.257
55.454 -37.2232 574.532
55.1967 -37.4814 574.577
54.9372 -37.7382 574.599
59.6314 -34.6942 574.477
59.3599 -34.9449 574.389
60.1601 -34.4463 574.528
60.4296 -34.1941 574.594
60.6984 -33.9413 574.652
60.9461 -33.9389 574.525
60.6834 -34.195 574.524
60.4155 -34.4482 574.474
65.1906 -30.8987 574.883
63.8676 -31.656 574.809
63.6045 -31.9131 574.812
46.225 -41.5262 579.328
46.4656 -41.5142 579.081
46.9214 -40.9427 578.244
46.927 -41.2105 578.333
46.703 -41.4997 578.799
46.9351 -41.4806 578.452
46.22 -41.785 579.284
46.4628 -41.775 579.066
46.7043 -41.764 578.833
47.3961 -41.1777 577.711
47.6308 -41.4242 577.425
47.4001 -41.4438 577.778
47.6321 -41.6879 577.46
47.8582 -41.6644 577.054
45.9743 -41.7925 579.469
47.8663 -41.9338 577.17
45.7214 -42.0568 579.581
45.4673 -42.3202 579.681
45.2138 -42.5842 579.788
44.9591 -42.8472 579.881
54.4241 -37.9938 574.686
53.172 -38.786 575.244
52.9119 -39.0422 575.258
52.652 -39.2986 575.275
53.1628 -39.0411 575.161
52.9027 -39.2974 575.176
53.4208 -38.7834 575.124
53.6693 -38.7806 575.002
53.4156 -39.0415 575.085
53.9208 -38.5182 574.895
52.1362 -39.5522 575.333
52.3906 -39.5537 575.275
52.6419 -39.5529 575.182
51.8743 -39.8069 575.327
51.1043 -40.0589 575.444
51.3595 -40.0611 575.394
51.6136 -40.0624 575.332
50.5757 -40.302 575.353
48.0889 -41.9073 576.726
54.6741 -37.9923 574.582
54.1595 -38.5086 574.67
53.9104 -38.7726 574.801
53.6616 -39.0369 574.936
50.0443 -40.5423 575.226
49.526 -40.7928 575.246
49.2747 -41.0553 575.355
49.0304 -41.3239 575.549
48.7792 -41.5868 575.662
50.834 -40.3067 575.34
51.0932 -40.3121 575.337
52.1266 -39.8068 575.245
51.866 -40.0624 575.252
50.304 -40.5482 575.23
49.7768 -40.7916 575.149
49.5193 -41.0489 575.186
49.2757 -41.318 575.386
49.029 -41.5846 575.55
48.5371 -41.5957 575.865
48.31 -41.8798 576.267
48.0994 -42.1789 576.87
48.5394 -41.8596 575.91
48.3217 -42.1521 576.425
48.7786 -41.8482 575.673
50.0349 -40.7963 575.135
50.5625 -40.5532 575.221
55.4569 -37.4869 574.578
55.7137 -37.2283 574.528
55.197 -37.7434 574.597
54.9334 -37.9973 574.575
64.3963 -31.4056 574.839
64.6558 -31.1467 574.803
64.923 -31.1539 574.849
63.8699 -31.9197 574.845
63.5989 -32.1727 574.776
64.6617 -31.4121 574.87
64.3996 -31.6697 574.883
63.3322 -32.1653 574.73
63.0563 -32.4155 574.616
63.3248 -32.4239 574.678
63.0497 -32.6744 574.57
62.7697 -32.9221 574.416
61.7178 -33.4231 574.384
61.4551 -33.6794 574.385
61.966 -33.421 574.263
61.703 -33.6772 574.262
61.1932 -33.9361 574.393
61.4384 -33.9323 574.244
63.0394 -32.9313 574.491
62.7595 -33.1789 574.337
63.3184 -32.683 574.635
61.9556 -33.6775 574.182
62.4831 -33.4281 574.214
66.025 -30.6724 575.286
66.0179 -30.932 575.238
67.7379 -30.7631 576.454
65.1935 -31.1627 574.923
65.7392 -30.9196 575.096
65.7399 -31.1827 575.116
66.0166 -31.1942 575.241
68.5808 -30.2734 576.871
68.8597 -30.2848 576.998
68.576 -30.535 576.844
68.0191 -30.7759 576.606
68.5733 -30.7976 576.835
67.7354 -31.0255 576.446
68.0193 -31.0396 576.621
69.4184 -30.3078 577.257
69.9616 -30.3237 577.382
69.7012 -30.5847 577.426
69.4215 -30.5731 577.296
69.9725 -30.5926 577.485
71.061 -30.3606 577.727
71.3433 -30.6373 577.884
71.0662 -30.6272 577.782
70.7716 -30.0809 577.51
70.7808 -30.3491 577.598
70.7902 -30.6175 577.689
70.5031 -30.3387 577.489
71.8991 -30.3934 578.083
71.6205 -30.6474 577.986
72.1833 -30.4063 578.239
71.9002 -30.6585 578.106
71.613 -30.9087 577.938
71.3369 -30.899 577.846
68.855 -30.5466 576.972
72.1845 -30.6715 578.261
27.8003 -56.4693 596.064
28.0474 -56.7132 595.74
28.294 -56.6858 595.376
28.5315 -56.9109 594.861
28.9773 -55.9577 593.096
29.218 -55.9223 592.646
29.4789 -54.8497 592.481
29.7333 -54.5725 592.284
29.9879 -54.296 592.093
27.5503 -56.4907 596.366
27.7978 -56.7349 596.045
26.7828 -56.2494 596.874
27.0418 -56.246 596.761
27.2965 -56.5045 596.588
27.548 -56.7568 596.351
27.0383 -56.5095 596.717
27.2939 -56.7701 596.567
26.5195 -56.5149 596.926
28.0459 -56.9806 595.741
28.2921 -56.9523 595.37
28.76 -56.579 594.104
28.5292 -57.1764 594.845
28.7635 -56.8557 594.208
28.9802 -56.2326 593.188
28.986 -56.5135 593.34
28.9925 -56.7957 593.505
29.2208 -56.1969 592.735
29.4656 -55.6317 592.309
26.7787 -56.5118 596.818
25.2921 -58.047 599.302
25.5391 -58.0137 598.883
25.783 -57.9743 598.399
26.0205 -57.378 597.702
26.0234 -57.656 597.806
26.028 -57.9378 597.947
26.2642 -56.7978 597.162
25.0412 -58.3444 599.673
25.2922 -58.3195 599.341
25.5409 -58.29 598.962
25.7857 -58.2521 598.497
26.0316 -58.2177 598.067
26.2666 -57.0744 597.253
26.2685 -57.3496 597.33
26.5168 -56.7802 596.901
24.7892 -58.3675 599.986
25.041 -58.6164 599.706
24.2808 -58.4049 600.523
24.5364 -58.3893 600.287
24.2808 -58.6777 600.561
24.5366 -58.6625 600.33
24.0215 -58.6846 600.708
22.4699 -58.1948 601.667
22.7184 -58.4323 601.262
22.2177 -58.2217 602.021
22.2188 -58.4984 602.094
22.4683 -58.4641 601.665
22.9712 -58.6811 600.975
22.7167 -58.7012 601.258
23.4943 -58.9509 600.83
23.2305 -58.947 600.866
23.7579 -58.9542 600.788
24.0201 -58.9544 600.714
22.9688 -58.9482 600.955
21.0888 -57.0777 607.444
21.3103 -58.34 606.357
21.06 -58.3793 606.843
21.0713 -58.1346 607.124
21.0822 -57.612 607.344
21.0782 -57.8774 607.277
21.0856 -57.3451 607.396
20.8178 -57.6133 607.435
21.0474 -58.6202 606.526
20.8197 -57.3423 607.444
21.0916 -56.8092 607.48
21.7181 -53.185 609.413
21.45 -53.7328 609.516
21.7265 -52.9286 609.603
21.4629 -53.4881 609.837
22.2546 -51.261 609.086
22.5164 -50.4235 608.772
22.2616 -51.0006 609.233
22.5248 -50.1661 608.957
22.0003 -51.8408 609.568
22.2671 -50.7367 609.34
21.7365 -52.676 609.838
22.0084 -51.5831 609.748
21.7459 -52.4217 610.056
21.1166 -55.218 607.923
20.8524 -55.2204 608.027
21.1395 -54.7249 608.492
21.1082 -55.4722 607.727
20.8637 -54.9738 608.31
21.1026 -55.7336 607.611
20.5995 -54.9766 608.42
20.5878 -55.2219 608.122
21.0987 -55.9995 607.545
21.0967 -56.2704 607.534
21.0941 -56.5396 607.504
21.1526 -54.4823 608.823
20.8777 -54.7341 608.672
20.8273 -56.5346 607.529
21.1672 -54.2429 609.195
20.8922 -54.4953 609.048
20.8245 -56.8031 607.492
21.1831 -54.0068 609.609
20.9086 -54.2613 609.481
33.7238 -50.593 588.076
33.7153 -50.8471 587.955
33.4625 -51.1207 588.137
31.9697 -53.0757 589.741
32.2118 -52.7823 589.348
31.2421 -53.6907 590.903
31.7312 -53.3762 590.209
31.4896 -53.6723 590.624
31.7317 -53.6449 590.247
31.486 -53.9342 590.586
32.9532 -52.1973 588.497
32.7049 -52.2117 588.736
32.4581 -52.4963 589.036
32.7074 -52.4829 588.809
32.4587 -52.7647 589.076
32.7095 -52.7537 588.877
32.2098 -53.0465 589.34
31.9661 -53.3375 589.705
30.4909 -54.0015 591.627
30.7376 -53.9806 591.322
30.9859 -53.9628 591.051
30.2322 -54.2699 591.732
30.4809 -54.2522 591.463
31.236 -53.9485 590.818
44.707 -43.1127 580.007
45.9689 -42.0509 579.42
45.7128 -42.3123 579.493
45.4593 -42.5761 579.599
45.2065 -42.8408 579.714
44.4535 -43.377 580.116
43.9578 -43.6533 580.464
43.7091 -43.659 580.618
44.2009 -43.6422 580.237
44.9552 -43.107 579.851
44.6991 -43.3686 579.925
44.4452 -43.6324 580.027
43.2025 -43.9251 580.829
43.4496 -43.9176 580.65
43.1944 -44.1807 580.74
42.2039 -43.9453 581.413
43.7008 -43.9144 580.529
42.6981 -44.1937 581.07
42.4478 -44.1982 581.208
42.9456 -44.1864 580.895
42.1958 -44.201 581.323
41.4282 -44.7253 581.554
41.1756 -44.9917 581.684
41.6867 -44.4653 581.506
41.9441 -44.2041 581.443
41.6791 -44.7212 581.422
41.4224 -44.9832 581.495
41.937 -44.4606 581.367
41.1736 -45.2537 581.678
40.9645 -46.3623 582.496
40.7236 -46.6433 582.801
40.2286 -46.9262 583.206
41.1766 -45.5213 581.744
41.1833 -45.7929 581.86
41.1908 -46.0656 581.989
41.1985 -46.3385 582.119
40.9666 -46.6293 582.548
40.7209 -46.9049 582.785
39.9783 -47.1972 583.382
40.4765 -46.9174 583.019
40.2248 -47.1867 583.174
40.4732 -47.1785 582.995
39.7302 -47.206 583.569
39.4808 -47.4784 583.761
39.2329 -47.7529 583.977
37.7441 -48.8739 585.254
37.4989 -48.8882 585.502
37.252 -48.9005 585.728
37.0059 -48.9141 585.968
37.989 -48.8592 585.001
38.986 -48.029 584.211
38.736 -48.3017 584.401
38.483 -48.5707 584.546
38.232 -48.8425 584.724
39.4789 -47.7412 583.756
39.2308 -48.0156 583.97
38.9806 -48.2877 584.155
37.0023 -49.1754 585.936
38.7308 -48.5605 584.346
38.4758 -48.8271 584.461
36.7545 -49.1871 586.153
39.7255 -47.4654 583.523
36.5038 -49.4611 586.349
35.2529 -50.3064 587.356
35.2385 -50.5525 587.142
34.726 -50.8209 587.344
34.4701 -50.8225 587.44
34.9775 -50.8131 587.177
36.7498 -49.4467 586.102
36.5021 -49.725 586.347
36.2529 -50.0015 586.57
35.9986 -50.2712 586.713
36.2457 -50.2577 586.478
35.9868 -50.5209 586.546
35.7356 -50.5288 586.714
35.487 -50.5404 586.925
35.4751 -50.7898 586.755
35.2262 -50.8012 586.963
33.9635 -50.8337 587.723
34.2153 -50.8259 587.556
36.4973 -49.9846 586.296
59.8911 -34.6986 574.466
58.8175 -35.184 574.199
58.5415 -35.4313 574.063
58.8107 -35.4417 574.148
58.5364 -35.69 574.03
59.0859 -35.1938 574.276
59.3515 -35.2019 574.324
59.6201 -34.9496 574.384
57.2355 -35.926 574.051
57.4878 -35.9263 573.972
57.4793 -36.1826 573.903
58.2711 -35.6818 573.981
57.7367 -36.1861 573.876
58.2661 -35.9404 573.948
57.9972 -36.1915 573.878
60.1497 -34.7024 574.444
56.9789 -36.1847 574.103
56.7198 -36.4418 574.13
57.2266 -36.1821 573.978
55.9638 -36.9652 574.41
56.2166 -36.9657 574.335
56.4634 -36.7006 574.183
55.971 -37.2318 574.5
56.9711 -36.4414 574.041
56.7158 -36.7009 574.105
56.4672 -36.9647 574.237
55.7179 -37.4929 574.588
55.4589 -37.75 574.616
55.1961 -38.0046 574.603
54.9288 -38.2559 574.544
59.8811 -34.9549 574.386
59.6114 -35.2065 574.315
60.4021 -34.7026 574.362
60.6655 -34.447 574.37
60.9298 -34.1918 574.386
61.174 -34.1875 574.227
60.9113 -34.4435 574.227
60.6507 -34.7006 574.245
65.2007 -31.4288 575.001
64.9297 -31.4197 574.922
64.1382 -31.9277 574.902
63.8693 -32.1818 574.853
63.5933 -32.4323 574.74
46.2122 -42.0412 579.207
46.4583 -42.0342 579.03
47.1594 -41.1922 577.995
47.1694 -41.4637 578.136
46.9402 -41.7482 578.535
47.175 -41.7315 578.224
46.702 -42.025 578.824
46.943 -42.0137 578.589
46.6958 -42.2827 578.768
47.4041 -41.7101 577.847
47.6398 -41.9573 577.572
47.4123 -41.9801 577.966
47.8787 -42.2073 577.339
48.1181 -42.4577 577.113
45.9595 -42.3056 579.321
45.7073 -42.5705 579.443
45.4512 -42.832 579.516
45.2001 -43.0982 579.653
44.9478 -43.3633 579.775
53.1572 -39.299 575.118
52.8964 -39.5545 575.125
53.4076 -39.2975 575.016
53.149 -39.5547 575.046
53.9031 -39.0291 574.741
53.655 -39.2939 574.882
52.379 -39.8069 575.165
52.6325 -39.8077 575.097
52.8869 -39.8093 575.039
52.1161 -40.0606 575.147
51.3497 -40.3153 575.303
51.6036 -40.3165 575.239
51.8573 -40.3176 575.174
50.8206 -40.5579 575.207
48.339 -42.4295 576.65
53.9014 -39.2896 574.739
53.6509 -39.5527 574.855
50.2925 -40.8007 575.117
49.7704 -41.048 575.093
49.52 -41.3113 575.213
49.2761 -41.5801 575.409
49.0266 -41.8444 575.542
51.0813 -40.5644 575.22
51.3385 -40.5683 575.194
52.3681 -40.0604 575.062
52.1092 -40.3172 575.088
50.5506 -40.8054 575.103
50.0275 -41.052 575.069
49.77 -41.3094 575.107
49.5223 -41.5749 575.258
49.276 -41.8418 575.427
48.546 -42.1274 576.007
48.5635 -42.4047 576.234
48.3592 -42.7097 576.91
48.7845 -42.1152 575.762
48.7958 -42.3869 575.913
48.5858 -42.6864 576.517
49.0286 -42.108 575.584
50.2847 -41.056 575.046
50.8107 -40.8116 575.111
55.7208 -37.7567 574.635
55.9767 -37.4974 574.575
55.4599 -38.0126 574.643
55.194 -38.265 574.599
64.6678 -31.6776 574.939
64.9361 -31.6854 574.994
64.1381 -32.1902 574.916
