-4.93346 33.1934 580.878
-4.92943 33.4337 580.576
-4.67923 33.1733 580.499
-4.43003 32.92 580.551
-4.67573 33.4164 580.247
-4.427 33.166 580.346
-4.92578 33.6765 580.319
-4.42392 33.4114 580.134
-4.17764 32.9116 580.376
-4.17531 33.1624 580.255
-4.67259 33.6618 580.039
-4.92165 33.9156 580.004
-3.92612 32.9097 580.315
-3.92797 32.6552 580.371
-3.92391 33.1609 580.203
-4.42143 33.6611 580
-4.17274 33.4111 580.102
-4.66985 33.9099 579.88
-4.41914 33.9122 579.89
-4.1706 33.6632 580.009
-3.92154 33.4108 580.069
-3.67479 32.9094 580.284
-3.67674 32.656 580.359
-3.67233 33.1581 580.127
-4.66693 34.1566 579.698
-4.9167 34.1488 579.593
-4.41689 34.1635 579.788
-3.42323 32.907 580.215
-3.42537 32.6558 580.329
-3.67007 33.4083 580
-3.42087 33.1559 580.063
-4.16853 33.9157 579.924
-3.91951 33.6635 579.987
-4.16657 34.1691 579.854
-3.91767 33.9177 579.93
-3.66818 33.6619 579.932
-3.41865 33.4061 579.935
-4.66449 34.4067 579.576
-4.41474 34.4154 579.696
-4.91271 34.3883 579.295
-4.66214 34.6573 579.466
-4.16424 34.4193 579.734
-3.91583 34.1719 579.875
-3.17079 32.8953 579.983
-3.16926 33.1523 579.972
-3.41651 33.6569 579.819
-3.16713 33.4028 579.85
-3.6664 33.9166 579.884
-3.91334 34.4203 579.723
-3.66458 34.1707 579.828
-3.41463 33.9102 579.748
-3.16477 33.6508 579.686
-4.41222 34.6644 579.557
-4.65939 34.9049 579.306
-4.16107 34.6624 579.495
-4.90952 34.6332 579.091
-4.90645 34.8786 578.899
-4.4086 34.9045 579.272
-3.90956 34.6571 579.378
-3.66176 34.4154 579.612
-3.16292 33.904 579.614
-3.41278 34.1638 579.683
-3.41017 34.4098 579.49
-3.16094 34.1559 579.521
-4.655 35.1398 578.941
-4.15665 34.8949 579.085
-3.65799 34.6509 579.246
-4.90154 35.1109 578.492
-4.40379 35.135 578.833
-4.64936 35.365 578.421
-3.90502 34.8868 578.923
-3.40661 34.6457 579.133
-3.15855 34.4031 579.35
-2.9091 34.1469 579.34
-4.15225 35.127 578.674
-3.6538 34.882 578.814
-3.15504 34.6379 578.974
-4.39931 35.3676 578.436
-4.89532 35.3332 577.93
-4.64485 35.5984 578.042
-3.90112 35.1219 578.56
-4.39561 35.6063 578.141
-4.14861 35.3654 578.37
-3.40288 34.8795 578.745
-3.65037 35.12 578.502
-2.90608 34.3858 579.031
-3.89786 35.3623 578.292
-3.39938 35.1155 578.399
-2.90295 34.623 578.697
-4.14522 35.6055 578.1
-4.89069 35.5667 577.555
-4.64142 35.8396 577.795
-4.88867 35.8189 577.49
-4.39233 35.848 577.902
-4.14197 35.8466 577.85
-3.64726 35.3609 578.24
-3.89476 35.6042 578.05
-3.64411 35.6012 577.973
-3.89134 35.8427 577.759
-4.63811 36.0817 577.565
-4.38891 36.0884 577.642
-4.635 36.3251 577.359
-4.38592 36.332 577.44
-4.13863 36.0867 577.587
-3.88816 36.0832 577.502
-4.13572 36.3303 577.384
-4.6325 36.573 577.227
-4.38342 36.5797 577.303
-4.63125 36.8309 577.254
-4.38192 36.8355 577.297
-4.1332 36.5774 577.238
-3.8828 36.573 577.139
-4.13124 36.8291 577.167
-4.63186 37.1036 577.511
-4.38195 37.1043 577.492
-4.13024 37.0894 577.23
-3.88078 36.8239 577.055
-3.8793 37.0799 577.053
-4.63408 37.3896 577.97
-4.38366 37.3878 577.911
-4.13114 37.3669 577.559
-3.87911 37.3483 577.24
-4.63474 37.6633 578.233
-4.38534 37.6712 578.324
-4.13321 37.6555 578.053
-4.38454 37.9336 578.411
-4.13358 37.9289 578.309
-3.88036 37.6308 577.644
-3.62876 37.616 577.387
-4.63703 37.9507 578.701
-4.38191 38.1801 578.256
-4.13151 38.1799 578.221
-3.88149 37.9124 578.027
-4.37859 38.4206 578.011
-3.88058 38.1745 578.11
-4.12844 38.4217 577.998
-3.6299 37.8996 577.802
-3.3789 37.8914 577.646
-3.62957 38.1679 577.979
-3.37859 38.1608 577.841
-3.87795 38.4197 577.937
-4.37522 38.6603 577.759
-4.12497 38.6595 577.716
-4.37695 38.945 578.179
-3.62739 38.4169 577.864
-3.87487 38.66 577.694
-3.3768 38.4136 577.783
-3.3742 38.6572 577.59
-3.6246 38.6593 577.653
-4.12203 38.9019 577.508
-3.87195 38.9019 577.477
-4.11986 39.1515 577.407
-3.62208 38.9043 577.482
-3.37201 38.9052 577.464
-3.37019 39.1574 577.401
-3.86994 39.1527 577.395
-4.11859 39.4096 577.433
-3.62022 39.1565 577.419
-3.86856 39.4098 577.405
-3.61879 39.4132 577.424
-3.36758 39.4003 577.203
-3.86776 39.673 577.504
-4.1222 39.7148 578.145
