-2.05782 10.5262 663.648
-1.77007 10.5245 663.601
-2.06042 10.2359 663.943
-1.77254 10.2343 663.897
-1.7676 10.8145 663.305
-1.48226 10.5227 663.539
-1.48455 10.232 663.807
-1.47997 10.8129 663.26
-2.06282 9.94457 664.181
-2.05264 11.106 663.064
-1.19459 10.5217 663.535
-1.19678 10.2313 663.818
-1.77501 9.94382 664.193
-1.48692 9.94166 664.112
-2.06547 9.65404 664.489
-1.76517 11.1044 663.023
-1.47772 11.1033 663.005
-1.19236 10.8116 663.235
-0.906797 10.5204 663.507
-1.19895 9.94032 664.086
-0.908891 10.2301 663.804
-1.19017 11.1015 662.949
-0.90472 10.8105 663.219
-1.7775 9.65311 664.493
-1.48925 9.65085 664.404
-2.04987 11.3944 662.709
-1.76275 11.3941 662.741
-1.47541 11.393 662.72
-0.910923 9.93891 664.055
-0.620939 10.2285 663.757
-1.20111 9.64918 664.356
-1.7799 9.36171 664.761
-1.49158 9.35969 664.689
-1.78234 9.07023 665.042
-1.18802 11.3916 662.688
-0.902632 11.1002 662.918
-0.61898 10.5186 663.454
-0.617005 10.8086 663.154
-0.912992 9.64795 664.339
-0.622878 9.93755 664.028
-0.90055 11.3896 662.617
-0.615071 11.0986 662.872
-1.20328 9.3577 664.619
-2.04736 11.684 662.439
-1.76037 11.6839 662.478
-1.47317 11.683 662.469
-2.04505 11.9746 662.237
-1.18585 11.6812 662.411
-0.624797 9.64614 664.281
-0.332958 10.2262 663.672
-0.334786 9.93536 663.944
-0.331141 10.5168 663.393
-0.915047 9.35653 664.607
-1.49388 9.0682 664.969
-1.20548 9.06628 664.904
-1.78465 8.77792 665.278
-1.49617 8.77628 665.234
-1.20776 8.77521 665.233
-1.78704 8.48577 665.543
-0.898519 11.6796 662.365
-0.613128 11.3885 662.597
-0.327495 11.0972 662.839
-0.329314 10.8071 663.117
-0.626766 9.35504 664.573
-0.336619 9.64462 664.243
-0.611241 11.6788 662.363
-0.325675 11.3871 662.568
-0.917119 9.06511 664.893
-1.75803 11.9738 662.232
-1.47089 11.9723 662.195
-1.18375 11.9714 662.182
-0.896534 11.9697 662.132
-0.338452 9.35337 664.526
-0.0449886 10.2243 663.607
-0.0466813 9.93341 663.878
-0.0432859 10.5145 663.305
-0.0483964 9.64242 664.159
-0.0415762 10.8051 663.043
-0.628718 9.06359 664.858
-0.919205 8.77344 665.18
-1.49848 8.48429 665.513
-1.20995 8.4832 665.512
-1.7894 8.1932 665.793
-0.921312 8.48171 665.481
-1.50086 8.19246 665.824
-1.21217 8.19117 665.811
-0.609301 11.9682 662.09
-0.323868 11.677 662.304
-0.0381832 11.3856 662.526
-0.0398801 11.0955 662.788
-0.340282 9.06217 664.829
-0.0500958 9.35111 664.436
-0.322053 11.9661 662.016
-0.0364817 11.6753 662.251
-0.630702 8.77227 665.172
-1.18159 12.2605 661.909
-0.894496 12.259 661.866
-0.607338 12.2566 661.772
-0.0518123 9.05985 664.735
0.242972 10.2221 663.519
0.241396 9.93145 663.81
0.244562 10.5129 663.26
0.53096 10.2207 663.491
0.239791 9.64017 664.072
0.529499 9.92986 663.767
0.246154 10.8036 663.003
0.532411 10.511 663.195
0.238216 9.34929 664.378
0.528031 9.63885 664.048
0.247741 11.0942 662.759
0.533897 10.8019 662.952
-0.342128 8.77064 665.129
-0.632655 8.48027 665.454
-0.923375 8.1893 665.75
-1.50312 7.89962 666.074
-1.21432 7.89833 666.062
-1.7941 7.60727 666.283
-0.634596 8.18787 665.724
-0.925458 7.89687 666.035
-0.320219 12.2548 661.713
-0.0347948 11.9642 661.953
0.249304 11.3836 662.456
0.250881 11.6729 662.161
-0.0535263 8.76864 665.057
0.236632 9.05782 664.661
0.526555 9.34735 664.312
-0.0330956 12.253 661.656
0.252455 11.9624 661.893
-0.343947 8.47845 665.397
-0.892425 12.5478 661.584
-0.60539 12.5452 661.486
-0.318404 12.5435 661.43
0.235058 8.76655 664.979
0.818917 10.2186 663.416
0.817582 9.92795 663.702
0.820296 10.5097 663.167
0.81624 9.63692 663.982
1.10571 9.92636 663.659
0.535356 11.0921 662.683
0.821655 10.8003 662.91
1.10819 10.508 663.12
0.525096 9.05602 664.606
0.814928 9.34606 664.292
1.10451 9.6355 663.951
0.536815 11.3819 662.4
0.822976 11.0902 662.618
-0.0552357 8.4769 665.361
-0.345786 8.18629 665.687
-0.636528 7.89494 665.969
-1.50532 7.6063 666.3
-1.21638 7.60472 666.265
-0.927421 7.60325 666.24
-1.79643 7.31394 666.523
-1.50745 7.31248 666.5
-1.21846 7.31108 666.482
-1.79877 7.02038 666.763
-0.347618 7.89367 665.959
-0.056951 8.18468 665.647
-0.638447 7.60171 666.208
-0.0314064 12.5414 661.357
0.254026 12.2515 661.613
0.53972 11.9605 661.827
0.538266 11.6713 662.113
0.825635 11.6694 662.048
0.233477 8.47491 665.29
0.523643 8.76451 664.905
0.813589 9.05457 664.575
1.10329 9.34419 664.23
0.255609 12.5403 661.334
0.541164 12.2496 661.551
0.826977 11.9587 661.771
-0.603453 12.8337 661.201
-0.316587 12.8316 661.129
-0.0297199 12.8304 661.102
0.522229 8.47328 665.248
0.812266 8.76312 664.88
1.10691 10.2169 663.364
1.39497 10.2157 663.346
1.39384 9.92468 663.611
1.10943 10.7986 662.855
1.39609 10.5065 663.081
1.39277 9.63389 663.908
1.682 9.92317 663.573
0.824299 11.3797 662.323
1.11062 11.0884 662.564
1.39718 10.7966 662.79
1.10208 9.05278 664.519
1.39166 9.34254 664.184
1.68109 9.63251 663.88
1.11184 11.3783 662.287
1.39826 11.0866 662.505
0.231893 8.18278 665.583
-0.0586678 7.89224 665.936
-0.349443 7.6005 666.205
-0.92942 7.30962 666.459
-0.640356 7.30827 666.446
-1.50971 7.01898 666.747
-1.22061 7.01756 666.73
-0.931447 7.01596 666.695
-1.51196 6.7253 666.997
-1.22276 6.72385 666.979
-0.0603819 7.59909 666.185
0.230316 7.89066 665.899
-0.351255 7.30704 666.444
0.257174 12.8286 661.039
0.54263 12.5385 661.276
0.82832 12.2479 661.499
1.11426 11.957 661.719
1.11305 11.6678 662.004
1.40047 11.6663 661.963
0.520767 8.18128 665.552
0.810952 8.47144 665.189
1.10091 8.76147 664.836
1.39065 9.05161 664.509
1.68016 9.34149 664.181
0.544064 12.8269 660.988
0.829642 12.5367 661.217
1.11545 12.246 661.433
1.40156 11.9556 661.682
0.258746 13.1175 660.79
0.809634 8.17944 665.494
1.09975 8.46995 665.158
1.3896 8.76008 664.811
1.68297 10.2138 663.283
1.68399 10.5047 663.024
1.97022 9.92177 663.543
1.68499 10.7952 662.756
1.972 10.5035 663.001
1.96939 9.63083 663.832
1.97109 10.2126 663.265
2.25843 9.92023 663.503
1.39936 11.3765 662.23
1.97289 10.794 662.735
1.6792 9.04997 664.465
1.96861 9.33986 664.136
1.68698 11.3753 662.208
1.97375 11.0842 662.457
0.519298 7.88874 665.834
0.228717 7.59794 666.187
-0.062093 7.30597 666.457
-0.642305 7.01483 666.705
-0.353088 7.01349 666.695
-0.933509 6.72244 666.964
-0.644248 6.72126 666.973
-1.22492 6.43 667.237
-0.935576 6.4287 667.236
0.227126 7.30468 666.449
0.517847 7.59617 666.135
-0.0638095 7.01248 666.716
0.54553 13.1156 660.73
0.830943 12.8249 660.92
1.11667 12.5349 661.159
1.40268 12.2449 661.411
1.6889 11.9541 661.64
1.68791 11.6647 661.914
1.97548 11.6638 661.907
0.808321 7.88721 665.802
1.09859 8.17811 665.477
1.38856 8.46847 665.128
1.67829 8.75856 664.776
1.9678 9.04856 664.437
0.832311 13.1138 660.67
1.1179 12.8237 660.89
1.40372 12.5333 661.112
1.68988 12.2434 661.369
1.97633 11.9532 661.63
0.83369 13.4028 660.434
1.09741 7.88586 665.785
1.38749 8.17629 665.42
1.67736 8.46679 665.081
1.96703 8.75708 664.745
2.25925 10.2114 663.247
2.26009 10.5025 662.995
2.25771 9.62915 663.783
2.54687 9.91945 663.514
2.26087 10.7931 662.731
2.54812 10.501 662.96
2.25709 9.33835 664.101
2.54615 9.62791 663.765
2.54758 10.2107 663.258
2.83515 9.91791 663.475
1.97464 11.3742 662.191
2.26166 11.0834 662.464
2.54873 10.7914 662.68
2.2565 9.04734 664.424
2.26227 11.3727 662.151
2.54931 11.0814 662.393
0.806975 7.5945 666.092
0.516364 7.30301 666.407
0.225517 7.01113 666.705
-0.354914 6.71988 666.961
-0.0655299 6.71878 666.978
-0.646197 6.42737 667.232
-0.356762 6.42622 667.248
-0.937627 6.13455 667.489
-0.648109 6.13298 667.463
-0.358565 6.13169 667.466
0.514884 7.00965 666.682
0.805636 7.3015 666.379
0.223907 6.71725 666.951
1.11918 13.1129 660.653
1.12037 13.4009 660.37
1.40487 12.8225 660.862
1.69092 12.5327 661.117
1.97712 12.2419 661.331
2.26368 11.9515 661.58
2.26301 11.6624 661.874
1.09617 7.59298 666.062
1.38642 7.88399 665.724
1.67646 8.17487 665.396
1.9662 8.46511 665.035
2.25575 8.75548 664.704
1.40602 13.1114 660.612
1.69192 12.8216 660.85
1.97801 12.531 661.064
2.26444 12.2408 661.307
1.40714 13.3999 660.349
1.40824 13.6879 660.075
1.38537 7.59147 666.033
1.67544 7.88211 665.663
1.96537 8.17287 665.324
2.25502 8.4634 664.986
2.54555 9.3366 664.048
2.83465 9.62677 663.754
2.83566 10.2088 663.198
2.83613 10.4994 662.912
2.83658 10.7897 662.626
2.54504 9.04542 664.359
2.83417 9.33545 664.038
3.12311 9.62536 663.724
3.12341 9.91626 663.428
3.1236 10.2065 663.109
2.54992 11.3712 662.11
2.83697 11.0793 662.318
2.54451 8.75388 664.663
2.55053 11.6609 661.833
2.83745 11.3692 662.039
1.09489 7.2996 666.315
0.804239 7.00778 666.622
0.513372 6.71564 666.917
-0.0672525 6.42465 667.218
0.222282 6.42308 667.19
-0.0689692 6.13032 667.461
-0.939602 5.83973 667.692
-0.650011 5.83828 667.68
-0.360383 5.83696 667.684
-0.070688 5.83551 667.673
0.220693 6.12905 667.466
0.802858 6.71403 666.883
1.09364 7.00612 666.582
0.511873 6.42168 667.178
1.69383 13.3979 660.285
1.69289 13.11 660.574
1.69482 13.686 660.015
1.97895 12.8202 660.814
2.26526 12.5301 661.053
2.55168 12.2391 661.256
2.55107 11.9499 661.533
1.38419 7.29802 666.282
1.67443 7.58909 665.928
1.96441 7.87992 665.575
2.25418 8.17071 665.24
2.54392 8.46186 664.951
1.9798 13.1086 660.535
2.266 12.8189 660.78
2.55241 12.5286 661.009
1.98063 13.3967 660.254
1.98151 13.6848 659.984
1.67345 7.29613 666.219
1.96351 7.58697 665.845
2.25347 7.87824 665.53
2.54326 8.16934 665.219
2.83279 8.46018 664.905
2.83372 9.04395 664.327
3.12277 9.33406 664.01
3.12399 10.4972 662.832
3.12433 10.7875 662.547
3.12473 11.0777 662.273
2.83326 8.75222 664.618
3.1223 9.04214 664.27
3.41141 9.62337 663.654
3.41119 9.3321 663.942
3.4115 9.91405 663.344
3.41178 10.205 663.067
3.41201 10.4956 662.785
3.69988 10.2032 663.01
2.83803 11.6592 661.781
3.12523 11.3681 662.02
3.41253 11.0762 662.229
2.83844 11.9483 661.484
3.1255 11.6574 661.723
3.41294 11.3666 661.981
1.38308 7.00461 666.556
1.09238 6.71245 666.851
0.801467 6.41998 667.137
0.510388 6.1275 667.442
-0.362188 5.54198 667.896
-0.0724087 5.54088 667.93
0.217452 5.53952 667.932
0.508903 5.83319 667.717
0.800147 6.12621 667.446
1.09114 6.41863 667.132
1.38193 6.71093 666.826
1.67244 7.00271 666.492
2.26813 13.6832 659.933
2.26735 13.3949 660.194
2.26882 13.9706 659.644
2.26669 13.1071 660.488
2.55314 12.8179 660.761
2.83899 12.2377 661.218
2.83955 12.5269 660.957
1.96275 7.2943 666.162
2.25269 7.58527 665.799
2.54255 7.87647 665.478
2.83223 8.16762 665.17
2.55369 13.106 660.467
2.84017 12.8162 660.711
2.55425 13.394 660.179
2.55476 13.6814 659.875
1.96194 7.0012 666.466
2.25205 7.2925 666.108
2.54194 7.58368 665.763
2.83173 7.87502 665.453
3.12136 8.16628 665.153
3.12164 8.45839 664.85
3.12197 8.75042 664.562
3.41094 9.04045 664.222
3.41218 10.7857 662.49
3.70008 10.494 662.743
3.70018 10.7844 662.461
3.70041 11.0748 662.198
3.41082 8.74892 664.529
3.69974 9.62148 663.591
3.69969 9.33033 663.888
3.69968 9.91215 663.279
3.69954 9.03865 664.165
3.98801 9.91057 663.238
3.98816 10.2019 662.983
3.98809 10.4923 662.689
4.2764 10.2003 662.945
3.12583 11.9466 661.434
3.41311 11.656 661.687
3.70058 11.3648 661.925
3.98833 11.0735 662.166
3.12615 12.2356 661.145
3.41323 11.945 661.383
3.70068 11.6545 661.643
1.67156 6.70951 666.811
1.3808 6.41702 667.098
1.08991 6.12467 667.422
0.798765 5.83183 667.716
-0.364001 5.24682 668.107
-0.0741244 5.24574 668.149
0.215826 5.24454 668.177
0.507373 5.53824 667.944
0.505872 5.24338 668.208
0.797368 5.53707 667.969
1.08867 5.83028 667.693
1.37968 6.12294 667.378
1.67052 6.41553 667.078
1.96107 6.70761 666.748
2.25139 6.99944 666.417
2.55534 13.969 659.591
2.84149 13.6801 659.842
2.84096 13.392 660.109
2.55597 14.2565 659.317
2.84198 13.9679 659.566
2.84248 14.2554 659.293
2.84056 13.1042 660.41
3.1267 12.5252 660.904
3.12712 12.8141 660.636
2.54138 7.29074 666.058
2.83137 7.58254 665.766
3.12108 7.87392 665.457
3.41041 8.16461 665.108
3.12743 13.1024 660.347
3.12813 13.6784 659.784
2.25067 6.70591 666.704
2.54089 6.99777 666.375
2.83086 7.28939 666.046
3.12071 7.58103 665.738
3.41025 7.87219 665.408
3.41061 8.45688 664.817
3.69959 8.45535 664.783
3.69958 8.74714 664.474
3.98831 9.03719 664.134
3.9882 10.7829 662.424
4.27644 10.4913 662.685
4.2764 10.782 662.418
3.98854 11.364 661.922
4.27633 11.0723 662.147
3.98815 9.6198 663.543
3.98828 9.32874 663.846
4.27673 9.61847 663.518
4.277 9.3274 663.823
4.27651 9.90938 663.221
3.98833 8.74536 664.42
4.27734 9.03624 664.141
4.56502 9.90815 663.202
4.56471 10.1989 662.912
4.5646 10.4899 662.648
4.85317 10.1977 662.894
3.4134 12.2339 661.091
3.70081 11.9438 661.361
3.98848 11.6535 661.632
4.2762 11.3622 661.864
4.56436 11.0711 662.124
3.41374 12.5231 660.83
3.7009 12.233 661.079
3.98836 11.9425 661.331
4.27604 11.6518 661.579
1.96025 6.4139 667.043
1.66955 6.12152 667.367
1.37861 5.82885 667.685
1.08738 5.53551 667.948
-0.365814 4.95145 668.316
-0.0758423 4.95049 668.381
0.504359 4.94807 668.442
0.79594 5.24188 668.196
0.794531 4.94656 668.433
1.0861 5.24056 668.208
1.37745 5.53404 667.937
1.66854 5.82712 667.642
1.95933 6.11967 667.31
2.25003 6.41238 667.02
2.54029 6.70423 666.663
3.12858 13.9664 659.524
3.12768 13.39 660.044
3.12902 14.2543 659.264
3.12964 14.5427 659.04
3.41547 14.2526 659.21
3.41501 13.9643 659.448
3.41591 14.5407 658.972
3.41406 12.8121 660.563
3.70114 12.5223 660.821
3.41425 13.1003 660.275
2.83041 6.99614 666.338
3.1203 7.28781 666.012
3.41004 7.57943 665.7
3.69949 8.16303 665.071
3.69955 7.87077 665.385
3.98877 8.16176 665.059
3.41453 13.3886 660.004
3.4148 13.6767 659.731
2.53967 6.41041 666.95
2.82987 6.70244 666.612
3.11992 6.99445 666.295
3.40979 7.28629 665.983
3.69931 7.57764 665.647
3.98857 8.45374 664.743
4.27728 8.74398 664.396
4.56606 9.03454 664.092
4.56455 10.7808 662.396
4.564 11.3607 661.826
4.56552 9.61752 663.52
4.56591 9.32641 663.824
4.85397 9.61579 663.468
4.85352 9.90676 663.173
4.27752 8.45205 664.696
4.56614 8.74234 664.352
4.85283 10.4885 662.617
5.14151 10.1963 662.859
4.85256 10.7791 662.348
5.14204 9.90539 663.145
5.14113 10.4872 662.59
3.98851 12.2322 661.076
4.27608 11.9416 661.322
4.56351 11.6498 661.508
4.85218 11.0693 662.067
4.85156 11.3586 661.752
3.70106 12.8103 660.505
3.98848 12.521 660.79
4.27613 12.2314 661.07
4.56342 11.9396 661.25
2.24927 6.11823 667.298
1.9585 5.82545 667.605
1.66755 5.53257 667.926
1.37626 5.239 668.19
0.212585 4.65381 668.647
0.502825 4.65242 668.659
0.793076 4.65085 668.644
1.08476 4.94503 668.421
1.08343 4.64943 668.651
1.37502 4.94352 668.412
1.66646 5.23744 668.17
1.95773 5.53115 667.922
2.24851 5.82386 667.578
2.53912 6.11645 667.248
2.82933 6.40847 666.883
3.11965 6.70103 666.598
3.70118 13.3864 659.926
3.70193 14.251 659.159
3.70214 14.5386 658.896
3.70168 13.963 659.414
3.7014 13.6747 659.662
3.98822 13.9612 659.354
3.98862 14.5373 658.863
3.98846 14.2495 659.114
3.98877 14.825 658.612
3.70111 13.0984 660.212
3.98833 12.8093 660.488
4.27571 12.5194 660.743
3.98814 13.0971 660.177
3.40958 6.99298 666.273
3.69916 7.28447 665.927
3.98871 7.86898 665.331
4.27778 8.15993 665.001
3.98868 7.57603 665.61
4.27797 7.86739 665.294
2.8289 6.11456 667.186
3.11911 6.40683 666.846
3.40928 6.69924 666.546
3.69897 6.99095 666.197
3.98861 7.28276 665.881
4.27824 7.57473 665.599
4.85512 8.74085 664.32
4.85469 9.03267 664.03
4.8544 9.32446 663.757
4.85124 11.6484 661.476
5.14245 9.61406 663.417
5.14312 9.32296 663.722
4.56699 8.1584 664.968
4.85568 8.44903 664.63
5.14404 8.73927 664.281
5.14079 10.7779 662.33
5.42937 10.4857 662.552
5.42996 10.1949 662.831
5.43065 9.90412 663.123
5.14005 11.0676 662.016
5.4312 9.61281 663.397
5.42874 10.7761 662.269
4.56334 12.2293 660.995
4.85097 11.9381 661.209
5.13894 11.647 661.437
5.42829 11.0666 662.007
5.42759 11.3564 661.715
4.27535 12.8074 660.427
4.56297 12.5179 660.698
4.85055 12.2272 660.921
2.5385 5.82212 667.533
2.24779 5.52934 667.871
1.95681 5.23617 668.188
1.66544 4.94231 668.442
0.21095 4.35785 668.839
0.501266 4.3564 668.847
0.791654 4.3551 668.877
1.08211 4.35368 668.89
1.37382 4.64799 668.656
1.66435 4.64676 668.69
1.95585 4.94085 668.441
2.24706 5.2345 668.155
2.53802 5.52781 667.853
2.8286 5.82058 667.513
3.11877 6.1128 667.139
3.40896 6.40524 666.816
3.98813 13.3853 659.897
3.98802 13.6728 659.6
4.27496 13.3836 659.846
4.27506 14.5359 658.822
4.27485 14.2476 659.051
4.27504 13.9603 659.338
4.275 13.6721 659.592
4.56181 13.9592 659.31
4.27522 14.824 658.589
4.56166 14.535 658.802
4.56159 14.2467 659.034
3.98883 15.112 658.345
4.27547 15.1121 658.369
4.56175 14.8231 658.572
4.56204 15.1117 658.371
4.2751 13.0955 660.129
4.56265 12.8064 660.408
4.56225 13.0944 660.104
3.69893 6.69749 666.497
4.27835 7.28154 665.88
4.5674 7.86604 665.277
4.8561 8.15669 664.92
4.56775 7.57328 665.575
4.85658 7.86418 665.217
3.11855 5.81873 667.455
3.40865 6.11103 667.09
3.699 6.40396 666.818
3.98873 6.69594 666.469
4.27848 6.98813 666.165
4.56809 7.28026 665.874
5.14472 8.44738 664.586
5.14345 9.03101 663.985
5.43304 8.73774 664.246
5.43235 9.02956 663.954
5.13842 11.9363 661.152
5.42676 11.6457 661.409
5.43173 9.32121 663.669
5.71973 9.61111 663.348
5.72053 9.31977 663.638
5.14529 8.15507 664.879
5.43376 8.4457 664.54
5.72224 8.73647 664.23
5.71765 10.4842 662.518
5.71843 10.1936 662.805
5.71684 10.7746 662.228
5.71917 9.90262 663.086
5.7163 11.0651 661.968
4.85014 12.516 660.636
5.13797 12.2256 660.878
5.42611 11.935 661.123
5.71466 11.6445 661.387
5.71555 11.3551 661.686
6.00436 11.0637 661.931
6.00326 11.3532 661.624
5.13753 12.5147 660.602
5.42557 12.2244 660.85
2.82809 5.52596 667.796
2.53731 5.23279 668.118
2.24619 4.93917 668.407
1.95494 4.64544 668.711
0.790226 4.05912 669.107
0.498208 3.76435 669.311
1.0808 4.05772 669.127
1.37152 4.05656 669.188
1.66334 4.35119 668.967
1.95399 4.34971 668.971
2.24551 4.64395 668.709
2.53663 4.93757 668.386
2.82759 5.23109 668.08
3.11826 5.52427 667.76
3.40866 5.8171 667.424
3.69883 6.10974 667.094
3.98886 6.40226 666.776
4.56218 13.3831 659.85
4.56201 13.6713 659.583
4.8496 13.383 659.873
4.8482 14.5337 658.765
4.84814 14.2452 658.987
4.84871 13.9583 659.294
4.84924 13.671 659.595
5.13576 13.9577 659.293
4.84854 14.8229 658.583
5.13521 14.5337 658.788
5.13511 14.2448 658.992
4.84965 13.0938 660.108
5.13706 12.8035 660.325
5.13682 13.0926 660.078
4.2785 6.69432 666.434
4.56823 6.98663 666.14
4.85754 7.27841 665.816
4.85706 7.57143 665.517
5.14581 7.86242 665.165
5.43463 8.15363 664.854
5.14643 7.56969 665.467
3.40859 5.52276 667.744
3.69878 5.81545 667.389
3.98895 6.10825 667.076
4.27872 6.40057 666.734
4.56839 6.69283 666.412
4.85808 6.98521 666.123
5.72286 8.4441 664.5
5.72124 9.02804 663.918
6.01123 8.73485 664.188
6.01027 9.02668 663.895
5.7139 11.9339 661.102
6.00232 11.6428 661.334
6.00927 9.31819 663.597
6.00815 9.60923 663.286
6.00738 9.90058 663.013
5.43511 7.86076 665.123
5.72361 8.15168 664.786
6.0119 8.44238 664.451
6.00575 10.4824 662.459
6.00669 10.1918 662.749
6.00492 10.7729 662.18
6.29297 10.7712 662.131
5.42494 12.5134 660.57
5.71304 12.2229 660.808
6.00142 11.9322 661.048
6.29124 11.3519 661.592
6.29222 11.0619 661.872
6.28987 11.6409 661.27
6.57907 11.3502 661.542
5.42448 12.8024 660.307
5.71245 12.5122 660.544
6.00085 12.222 660.798
3.11796 5.22952 668.06
2.82701 4.93583 668.346
2.53589 4.64201 668.64
2.24469 4.3482 668.969
0.788833 3.76308 669.361
1.07952 3.76167 669.387
0.496672 3.46791 669.522
0.787388 3.46667 669.588
1.07826 3.46545 669.658
1.37031 3.76035 669.43
1.66228 4.05526 669.225
1.66119 3.75902 669.469
1.95311 4.05388 669.25
2.24385 4.05222 669.229
2.53529 4.34646 668.932
2.82642 4.64033 668.611
3.11755 4.93429 668.333
3.40827 5.22774 668.013
3.69871 5.52088 667.684
3.9889 5.81377 667.352
4.27888 6.10644 667.023
5.13681 13.3821 659.86
5.42382 13.3806 659.815
5.4224 14.245 659.028
5.4227 13.9567 659.269
5.4234 13.6691 659.56
5.70983 13.9561 659.267
5.42421 13.0918 660.07
5.71189 12.8014 660.285
5.71135 13.0903 660.027
4.56865 6.39892 666.698
4.85827 6.69126 666.382
5.14742 6.98305 666.035
5.14695 7.27653 665.754
5.43567 7.56773 665.398
5.72432 7.85893 665.065
5.43618 7.2744 665.67
3.69858 5.22598 667.969
3.98899 5.51922 667.651
4.27923 5.81233 667.343
4.56897 6.10486 666.995
4.85845 6.39708 666.641
5.1478 6.68922 666.305
6.01264 8.14976 664.721
6.30002 8.73294 664.124
6.30085 8.44052 664.391
6.29894 9.02477 663.831
6.29785 9.31633 663.536
6.28894 11.9305 660.994
6.29667 9.60749 663.233
6.29584 9.89896 662.968
6.2947 10.1897 662.669
5.72492 7.56579 665.332
6.3021 8.14841 664.702
6.59023 8.43922 664.374
6.29379 10.4805 662.394
6.58085 10.7693 662.061
6.5821 10.479 662.358
6.58011 11.0601 661.815
6.8693 10.7682 662.047
6.00013 12.5113 660.533
6.28825 12.2203 660.743
6.57694 11.9296 660.986
6.57796 11.6399 661.259
6.86704 11.3487 661.502
6.86587 11.6386 661.225
6.86809 11.0584 661.766
7.15508 11.3473 661.468
5.99922 12.8 660.247
6.28763 12.51 660.499
3.40796 4.93251 668.286
3.11718 4.63892 668.62
2.826 4.34485 668.914
2.53459 4.05051 669.198
1.36916 3.46406 669.697
1.07693 3.1688 669.89
0.784473 2.87308 670.004
1.36792 3.16737 669.93
1.66013 3.46266 669.734
1.95215 3.75768 669.51
1.95113 3.46113 669.743
2.24296 3.75591 669.472
2.53397 3.75443 669.485
2.82553 4.049 669.203
3.11671 4.34317 668.887
3.40767 4.63708 668.566
3.69824 4.93055 668.217
3.98898 5.22432 667.937
4.27932 5.51762 667.624
4.56943 5.81067 667.308
5.71086 13.3792 659.776
5.71033 13.6677 659.518
5.99798 13.3778 659.74
5.99753 13.6668 659.504
5.99865 13.0891 659.999
6.28614 13.0883 659.988
4.85881 6.1029 666.926
5.148 6.39492 666.551
5.43686 6.98104 665.961
5.43749 6.68737 666.247
5.72579 7.27278 665.632
6.01471 7.56454 665.326
6.30331 7.85597 665.009
5.72646 6.97923 665.907
6.01536 7.27106 665.586
3.9888 4.92893 668.192
4.27937 5.2226 667.898
4.56972 5.51605 667.601
4.85951 5.80885 667.255
5.1488 6.10111 666.875
5.43801 6.39332 666.519
6.59153 8.14697 664.677
6.58914 8.73147 664.092
6.58763 9.0229 663.769
6.87917 8.43731 664.311
6.58625 9.31423 663.458
6.58505 9.60555 663.167
6.87527 9.31297 663.441
6.57575 12.2187 660.697
6.8648 11.9283 660.959
6.5839 9.89669 662.88
6.58301 10.188 662.62
6.87115 10.186 662.551
6.30444 7.56316 665.308
6.59272 7.85434 664.969
6.88077 8.14527 664.63
6.87783 8.72941 664.017
6.87028 10.4773 662.304
7.15735 10.7664 661.992
7.15855 10.4757 662.26
7.15617 11.0569 661.726
6.28691 12.7993 660.247
6.57515 12.5086 660.465
6.86379 12.218 660.699
7.15379 11.6372 661.192
7.44305 11.3458 661.425
7.15251 11.9269 660.918
7.44414 11.0552 661.672
7.44165 11.6357 661.15
6.57443 12.7982 660.224
6.86304 12.5079 660.464
3.69829 4.63538 668.534
3.40745 4.34148 668.857
3.11637 4.04734 669.18
2.82495 3.7528 669.472
1.65905 3.166 669.982
1.07555 2.87184 670.098
1.36669 2.87047 670.162
0.782985 2.57589 670.18
1.07415 2.57462 670.283
1.36542 2.5733 670.375
1.6579 2.86904 670.21
1.95016 3.16445 669.995
2.24215 3.45952 669.74
2.24134 3.16289 670.008
2.53326 3.45797 669.747
2.82439 3.45637 669.743
3.11597 3.75117 669.459
3.40728 4.04569 669.16
3.69825 4.33983 668.835
3.98873 4.63345 668.467
4.27931 4.9272 668.154
4.56987 5.22099 667.873
4.86021 5.51452 667.585
6.28538 13.3771 659.731
6.8621 12.7973 660.21
5.14959 5.80702 667.2
5.43861 6.09912 666.802
5.72794 6.3916 666.475
5.72709 6.68543 666.18
6.01612 6.97749 665.859
6.01682 6.68361 666.125
6.30533 7.26982 665.583
6.59406 7.5616 665.275
6.88254 7.85314 664.965
6.30593 6.9759 665.825
6.59528 7.26848 665.571
4.27929 4.63163 668.417
4.56995 4.92562 668.134
4.8606 5.21957 667.872
5.1504 5.51264 667.524
5.43943 5.8049 667.112
5.7286 6.09733 666.752
6.01765 6.38962 666.405
6.87654 9.0213 663.728
7.16542 9.01965 663.682
7.16812 8.43542 664.247
7.17011 8.14366 664.59
7.16672 8.72761 663.961
6.8736 9.60384 663.116
7.16394 9.31121 663.387
6.87232 9.89498 662.829
7.16244 9.60251 663.092
7.453 9.30993 663.368
7.15139 12.2165 660.657
7.16094 9.89352 662.795
7.1595 10.1844 662.505
7.44807 10.183 662.475
6.88383 7.56018 665.254
7.17175 7.85122 664.9
7.45587 8.72609 663.927
7.44555 10.7648 661.948
7.44672 10.4739 662.205
7.73509 10.4724 662.164
7.15064 12.5066 660.432
7.44044 11.9256 660.892
7.7309 11.3441 661.371
7.73221 11.0536 661.628
7.72959 11.6343 661.114
7.43935 12.2156 660.644
7.72846 11.9245 660.871
7.7337 10.7632 661.901
8.02046 11.0523 661.596
8.0179 11.6334 661.106
3.9889 4.33797 668.78
3.6982 4.044 669.134
3.40715 3.74966 669.468
3.11572 3.45492 669.772
1.94918 2.86753 670.242
1.65678 2.57189 670.445
1.36413 2.27589 670.577
1.65561 2.27447 670.66
1.94823 2.57044 670.503
2.24055 2.86606 670.283
2.53258 3.16132 670.018
2.53187 2.86439 670.278
2.82391 3.15978 670.033
3.11527 3.15822 670.045
3.4069 3.45325 669.755
3.69821 3.74797 669.445
3.98897 4.04214 669.079
4.27968 4.33625 668.745
4.56998 4.62996 668.388
4.86079 4.92416 668.133
5.15109 5.21788 667.837
5.44042 5.51059 667.443
5.72956 5.80311 667.062
6.01881 6.09573 666.722
6.3069 6.68216 666.107
6.59608 6.97465 665.825
6.30789 6.38822 666.394
6.59693 6.68063 666.081
6.88482 7.26666 665.515
7.17324 7.55836 665.198
6.88563 6.97272 665.758
4.57033 4.33438 668.689
4.86086 4.62842 668.378
5.15147 4.92252 668.106
5.44151 5.21606 667.785
5.73072 5.5088 667.395
6.0199 5.8015 667.033
6.30891 6.09403 666.681
6.59794 6.38656 666.356
7.45441 9.01809 663.644
7.74366 9.01684 663.628
7.45724 8.43371 664.199
7.45893 8.14145 664.501
7.74634 8.43198 664.149
7.46081 7.84915 664.822
7.74505 8.72458 663.893
7.45111 9.60089 663.048
7.74214 9.30869 663.352
7.44934 9.89175 662.74
7.74003 9.5996 663.026
8.03106 9.30717 663.315
7.73811 9.89043 662.715
7.73656 10.1815 662.437
7.17413 7.26459 665.437
7.46251 7.55635 665.125
8.02197 10.7617 661.862
8.02326 10.4706 662.109
8.02482 10.1797 662.378
8.31184 10.4693 662.084
8.01908 11.3428 661.343
8.30768 11.342 661.346
8.30892 11.0511 661.58
8.29908 11.6224 660.527
8.31046 10.7604 661.838
8.59773 11.0504 661.587
4.27995 4.04045 669.054
3.98926 3.74624 669.414
3.69812 3.45158 669.739
3.40666 3.15659 670.044
2.23967 2.56886 670.528
1.9472 2.27303 670.737
1.36278 1.97824 670.755
1.65439 1.97682 670.86
1.94611 1.97536 670.951
2.23881 2.27149 670.785
2.53116 2.56725 670.544
2.82335 2.86286 670.306
2.82274 2.56566 670.568
3.11483 2.86126 670.317
3.4063 2.85958 670.308
3.6981 3.15497 670.044
3.98936 3.44987 669.716
4.28006 3.74426 669.339
4.57074 4.03859 668.998
4.86125 4.33273 668.666
5.15204 4.62712 668.403
5.44232 4.921 668.095
5.73179 5.21414 667.72
6.02111 5.50709 667.356
6.31025 5.79989 667.003
6.88663 6.67874 666.019
6.59907 6.09235 666.643
6.88802 6.38491 666.319
7.17499 6.97061 665.675
7.46393 7.26302 665.404
7.17643 6.67695 665.967
4.86174 4.03687 668.967
5.15237 4.33124 668.668
5.4429 4.62546 668.377
5.7327 4.91904 668.025
6.02221 5.21232 667.669
6.31149 5.50538 667.315
6.60045 5.79811 666.955
6.88952 6.0909 666.629
8.03256 9.01513 663.579
8.03396 8.72275 663.835
7.74795 8.1395 664.434
8.03542 8.43023 664.097
7.7498 7.84701 664.739
8.03741 8.13799 664.402
8.32483 8.42877 664.069
7.75192 7.5545 665.067
8.03949 7.84557 664.715
8.02903 9.59833 663.006
8.02669 9.88883 662.672
8.31948 9.30504 663.235
8.32115 9.01307 663.503
8.3176 9.59651 662.948
8.31541 9.88739 662.639
7.46481 6.96894 665.634
7.75324 7.26097 665.326
8.04135 7.55268 665.01
8.59957 10.7599 661.859
8.31337 10.1782 662.341
8.60087 10.4686 662.091
8.60205 10.1768 662.312
8.88923 10.4669 662.043
8.00742 11.9099 660.103
8.88828 10.7588 661.846
4.57091 3.74234 669.274
4.28023 3.44785 669.632
3.98941 3.15321 670.013
3.69786 2.85795 670.312
2.2378 1.97373 670.989
1.94494 1.67741 671.133
2.23679 1.67582 671.202
2.52964 1.97217 671.047
2.82208 2.26819 670.817
3.11422 2.56393 670.553
3.11375 2.26648 670.818
3.40593 2.56233 670.574
3.69757 2.56064 670.569
3.9894 2.85624 670.299
4.28059 3.15134 669.959
4.57145 3.44611 669.602
4.86217 3.74071 669.263
5.15292 4.03529 668.959
5.44348 4.32967 668.657
5.73355 4.62362 668.323
6.02322 4.91719 667.97
6.31292 5.21074 667.647
6.60223 5.50392 667.307
6.89113 5.79671 666.95
7.17803 6.38318 666.275
7.17973 6.08922 666.59
7.46619 6.6751 665.909
7.75475 6.96737 665.603
7.46815 6.38153 666.237
7.7564 6.67365 665.891
5.15336 3.73902 669.239
5.44403 4.03361 668.935
5.73441 4.32794 668.622
6.02437 4.62189 668.287
6.31398 4.91553 667.94
6.60368 5.20917 667.628
6.89273 5.50224 667.271
7.46986 6.08745 666.542
8.32295 8.721 663.783
8.32687 8.13645 664.368
8.61388 8.42694 664.011
8.32896 7.8439 664.671
8.61615 8.1347 664.317
8.61188 8.71919 663.726
8.04296 7.2593 665.285
8.33093 7.55098 664.965
8.61852 7.84228 664.631
8.608 9.30304 663.164
8.61001 9.01132 663.451
8.60596 9.59448 662.875
8.60376 9.8855 662.576
8.0446 6.9657 665.562
8.33263 7.25756 665.236
8.62091 7.54961 664.948
8.89042 10.175 662.258
8.89235 9.88384 662.528
9.17909 10.1736 662.225
7.71826 12.2002 659.855
4.86254 3.44425 669.55
4.57185 3.1495 669.911
4.28085 2.85445 670.265
3.9891 2.55883 670.535
2.52879 1.67424 671.276
2.82144 1.9705 671.07
1.94377 1.37931 671.32
2.23581 1.37773 671.423
1.94256 1.08104 671.496
2.82073 1.67256 671.31
3.11331 1.96884 671.094
3.40548 2.26479 670.822
3.40516 1.96711 671.096
3.6972 2.26306 670.813
3.98911 2.26139 670.825
4.28083 2.55713 670.53
4.57214 2.85255 670.206
4.86311 3.14766 669.864
5.1538 3.4425 669.519
5.44456 3.7373 669.211
5.73528 4.03201 668.923
6.02525 4.32613 668.574
6.31505 4.62006 668.234
6.60493 4.91397 667.925
6.89439 5.20752 667.597
7.18316 5.50048 667.226
7.47175 5.79324 666.863
7.75834 6.37992 666.205
7.76041 6.086 666.529
8.04644 6.67203 665.856
8.33476 6.96426 665.543
8.04885 6.37853 666.196
8.33674 6.67057 665.837
5.44533 3.4409 669.517
5.73602 3.73574 669.211
6.02624 4.03018 668.874
6.60596 4.61837 668.203
6.89567 4.91225 667.887
7.18515 5.2059 667.57
7.47381 5.49887 667.199
7.76208 5.79151 666.82
8.05063 6.08427 666.484
8.90304 8.4252 663.96
8.90546 8.13297 664.268
8.90061 8.71715 663.652
8.90797 7.84056 664.583
8.8986 9.00925 663.375
8.62276 7.2562 665.223
8.91025 7.54766 664.881
8.89679 9.30132 663.113
8.89485 9.59302 662.842
9.18532 9.29933 663.043
9.1832 9.59097 662.768
9.18114 9.88242 662.497
8.62456 6.9625 665.493
8.91239 7.25439 665.168
5.15441 3.14583 669.82
4.86355 2.85071 670.16
4.57228 2.55525 670.477
4.28082 2.25959 670.796
2.82018 1.37448 671.587
2.23478 1.07943 671.628
2.52701 1.07774 671.711
2.52592 0.779138 671.876
2.81935 1.07605 671.796
3.11225 1.37273 671.604
3.40485 1.66918 671.37
3.69707 1.96538 671.099
3.6969 1.66744 671.38
3.989 1.96363 671.095
4.28092 1.96186 671.081
4.57255 2.25779 670.769
4.86388 2.55344 670.442
5.15518 2.84898 670.142
5.4459 3.1441 669.796
5.7367 3.43916 669.489
6.02718 3.73394 669.168
6.31718 4.02834 668.822
6.60703 4.32255 668.485
6.89706 4.61679 668.188
7.18635 4.91047 667.842
7.47539 5.20388 667.493
7.76417 5.49705 667.146
8.05254 5.78984 666.784
8.33882 6.37669 666.139
8.62646 6.66865 665.772
8.34085 6.08252 666.439
8.62871 6.3748 666.078
5.7375 3.14242 669.783
6.02815 3.43746 669.466
6.31828 3.73211 669.12
6.60847 4.0267 668.804
6.89829 4.32097 668.473
7.18774 4.61491 668.129
7.47678 4.90851 667.772
7.76606 5.20217 667.456
8.05449 5.49519 667.088
8.34286 5.78808 666.737
9.19237 8.42363 663.922
9.19474 8.13122 664.216
9.18973 8.71552 663.609
9.48172 8.42203 663.883
9.19723 7.83866 664.52
9.18736 9.00739 663.314
9.47909 8.71407 663.58
9.19968 7.5458 664.821
9.47619 9.00557 663.257
8.91436 6.96073 665.442
9.20225 7.25277 665.131
9.47372 9.29723 662.965
8.91629 6.66681 665.715
9.20427 6.95904 665.399
5.44674 2.8472 670.11
5.15579 2.55177 670.444
4.8645 2.25606 670.764
4.57289 1.96009 671.069
3.11162 1.07429 671.835
3.40433 1.37094 671.608
2.81837 0.777398 671.972
3.11072 0.775592 672.013
3.10986 0.476741 672.198
3.4038 1.07248 671.84
3.69658 1.36919 671.631
3.98896 1.66566 671.375
3.98875 1.36739 671.629
4.28094 1.66384 671.353
4.57319 1.66211 671.366
5.15622 2.25422 670.723
5.44734 2.54991 670.396
5.73813 2.84532 670.055
6.0291 3.1407 669.762
6.31947 3.43566 669.427
6.6094 3.73028 669.071
6.89948 4.02487 668.754
7.18902 4.31905 668.408
7.47802 4.61279 668.035
7.76728 4.90659 667.707
8.05639 5.20023 667.388
8.34511 5.49351 667.053
8.63355 5.78653 666.715
8.63089 6.08065 666.379
8.91868 6.37296 666.021
8.92127 6.07899 666.342
6.02994 2.84363 670.047
6.32053 3.13889 669.721
6.61054 3.43374 669.361
6.9007 3.72853 669.038
7.19048 4.02302 668.703
7.4797 4.31709 668.338
7.76856 4.61083 667.965
8.05828 4.90499 667.686
8.34714 5.19853 667.352
8.63552 5.49169 667
9.48403 8.12945 664.164
9.77113 8.42049 663.848
9.48654 7.8368 664.46
9.7734 8.12775 664.117
9.76846 8.71261 663.55
9.48922 7.54402 664.768
9.49209 7.2511 665.088
9.77889 7.54232 664.723
9.20641 6.66517 665.678
9.49448 6.95755 665.376
9.20831 6.37088 665.939
9.49661 6.66357 665.645
9.78418 6.95568 665.315
5.73902 2.5481 670.36
5.44802 2.2524 670.69
5.15695 1.95653 671.042
4.86536 1.66032 671.355
3.40321 0.773797 672.063
3.69603 1.07066 671.845
3.40245 0.474896 672.25
3.69557 0.771954 672.071
3.69497 0.473031 672.274
3.98836 1.06885 671.853
4.28092 1.36558 671.62
4.28095 1.06709 671.893
4.5733 1.36381 671.634
4.86547 1.36196 671.606
5.1574 1.65847 671.324
5.44884 1.95468 671.002
5.7398 2.25056 670.652
6.03055 2.54621 670.305
6.32131 2.84172 669.985
6.61161 3.1369 669.642
6.90173 3.43185 669.304
7.1918 3.72668 668.986
7.48162 4.02125 668.663
7.77036 4.31513 668.268
8.05945 4.60908 667.925
8.34888 4.90312 667.628
8.63743 5.19655 667.279
8.9237 5.78462 666.652
8.92592 5.48985 666.945
9.21089 6.07682 666.25
9.21385 5.78271 666.588
6.32214 2.54434 670.256
6.61263 2.83979 669.92
6.90287 3.13499 669.581
7.19336 3.43019 669.29
7.48321 3.72496 668.958
7.77233 4.01924 668.584
8.0611 4.31322 668.204
8.35032 4.6073 667.88
8.63947 4.90125 667.57
8.928 5.19474 667.229
9.77582 7.83492 664.398
10.0631 8.1263 664.091
10.0657 7.83348 664.375
9.78159 7.24918 665.023
10.0683 7.54045 664.662
10.0709 7.2471 664.944
9.49842 6.36914 665.892
9.78659 6.6618 665.596
9.50091 6.07491 666.187
9.78879 6.36755 665.862
10.0738 6.95375 665.25
10.0765 6.65999 665.541
6.03126 2.2486 670.575
5.74057 1.95277 670.942
5.44961 1.65667 671.308
5.15787 1.36017 671.607
3.98792 0.770095 672.066
3.98767 0.471175 672.313
4.2806 0.768287 672.107
4.28027 0.469301 672.327
4.5733 1.06525 671.885
4.57324 0.766457 672.128
4.86567 1.06341 671.872
5.15805 1.06155 671.855
5.45024 1.35835 671.597
5.74163 1.6548 671.266
6.03217 1.95081 670.867
6.3231 2.24677 670.538
6.61391 2.54254 670.224
6.90436 2.83802 669.892
7.19462 3.1333 669.566
7.48457 3.4283 669.233
7.77423 3.72305 668.895
8.06296 4.01721 668.5
8.35187 4.31131 668.141
8.64111 4.60548 667.83
8.92996 4.89931 667.504
9.21868 5.19299 667.185
9.21639 5.48806 666.896
9.50708 5.48637 666.86
9.50374 5.78063 666.505
9.79152 6.07338 666.164
9.79437 5.77901 666.475
6.90572 2.54074 670.192
7.19597 2.83621 669.853
7.48598 3.13143 669.513
7.77576 3.42641 669.174
8.06495 3.721 668.807
8.35371 4.01523 668.426
8.64322 4.3097 668.126
8.93224 4.60381 667.803
9.22066 4.8975 667.453
9.50948 5.19128 667.149
10.3551 7.8317 664.321
10.3578 7.53857 664.6
10.3607 7.24538 664.897
10.364 6.95222 665.222
10.6507 7.24381 664.864
10.0796 6.3662 665.857
10.367 6.65851 665.52
10.0821 6.07179 666.136
10.3699 6.36452 665.817
10.6537 6.9503 665.157
10.6568 6.65661 665.458
6.32462 1.94912 670.882
6.03383 1.65297 671.242
5.74262 1.35652 671.583
5.45057 1.05972 671.849
4.57299 0.46743 672.345
4.86593 0.465573 672.383
4.8659 0.764618 672.142
5.15836 0.762739 672.12
5.45115 0.760899 672.134
5.74353 1.05796 671.891
6.03577 1.35486 671.648
6.90815 2.24354 670.594
7.19807 2.53912 670.208
7.48791 2.8345 669.839
7.77751 3.12962 669.474
8.06721 3.42463 669.137
8.35607 3.71913 668.753
8.64483 4.01344 668.383
8.93406 4.30782 668.068
9.22281 4.60186 667.733
9.51138 4.89568 667.402
9.79728 5.48441 666.79
9.79975 5.18929 667.075
10.0846 5.77713 666.414
10.3725 6.0701 666.096
10.0873 5.48235 666.708
10.3751 5.77541 666.373
7.49101 2.53768 670.27
7.20178 2.24222 670.712
7.78019 2.8329 669.852
8.06933 3.12792 669.455
8.35829 3.42268 669.067
8.64685 3.71712 668.671
8.93593 4.01162 668.335
9.22504 4.30601 668.019
9.51378 4.6001 667.692
9.80193 4.89377 667.34
10.9432 6.94833 665.087
10.66 6.36273 665.766
10.6631 6.06849 666.066
10.9466 6.65472 665.396
11.2361 6.65263 665.314
10.9497 6.36069 665.688
5.74465 0.759144 672.224
4.86604 0.166316 672.635
5.15865 0.463687 672.381
5.15911 0.164409 672.666
5.45182 0.461833 672.427
5.74591 0.460046 672.571
7.49644 2.24117 670.909
8.07279 2.8314 669.886
8.36118 3.12621 669.436
8.64932 3.42072 668.996
8.93823 3.71535 668.635
9.22715 4.00985 668.295
9.51611 4.30422 667.975
9.80432 4.59812 667.619
10.0897 5.18712 666.977
10.0926 4.89191 667.283
10.3776 5.48043 666.644
10.6655 5.77365 666.326
10.3804 5.18538 666.936
10.6681 5.47862 666.592
8.36602 2.83007 669.962
8.65288 3.12443 669.404
8.94071 3.41889 668.949
9.22929 3.71346 668.576
9.51878 4.00824 668.283
9.80746 4.30256 667.951
10.0951 4.59629 667.568
10.9532 6.06659 666.003
10.9557 5.77175 666.264
11.2397 6.35882 665.629
11.5324 6.0623 665.824
11.2428 6.06445 665.914
8.65944 2.82877 670.045
8.94518 3.12285 669.413
9.23216 3.41709 668.908
9.52108 3.71184 668.566
9.81003 4.00646 668.243
10.0979 4.30048 667.862
10.3829 4.8899 667.206
10.6706 5.18333 666.854
10.3855 4.59422 667.481
10.9582 5.47665 666.521
10.6734 4.88797 667.139
10.961 5.18144 666.794
8.95339 2.82758 670.156
9.2366 3.12096 669.354
9.52346 3.41522 668.854
9.81225 3.70998 668.512
10.1008 4.00447 668.167
10.3884 4.29843 667.777
11.2455 5.76962 666.175
11.2485 5.47474 666.458
11.5353 5.76756 666.093
11.8257 5.76574 666.04
12.1161 5.76393 665.988
9.24628 2.82603 670.18
9.53869 2.82431 670.165
9.52824 3.11913 669.31
9.81497 3.41342 668.814
10.1033 3.70807 668.449
10.3913 4.00241 668.079
10.6763 4.59236 667.426
10.964 4.88607 667.077
11.2516 5.1796 666.739
10.6791 4.2965 667.711
10.9671 4.59053 667.374
11.2553 4.8845 667.06
11.5428 5.17802 666.719
9.8309 2.82253 670.134
9.81952 3.11719 669.241
10.1063 3.41155 668.758
10.3947 3.70628 668.409
10.6822 4.00049 668.014
10.9706 4.29487 667.692
11.5388 5.47279 666.39
11.8295 5.47107 666.349
12.1193 5.46897 666.262
12.4131 5.17189 666.477
12.1231 5.17398 666.563
10.1221 2.82046 670.036
10.4118 2.81798 669.839
10.1112 3.11536 669.198
10.3977 3.4097 668.708
10.6851 3.70413 668.302
10.9732 3.99861 667.956
11.2587 4.58898 667.362
11.5461 4.88269 667.011
11.8328 5.17594 666.633
11.2616 4.29304 667.641
11.5492 4.58701 667.291
11.8362 4.88058 666.92
10.7019 2.81564 669.675
10.4019 3.11325 669.092
10.6884 3.40764 668.616
10.976 3.70214 668.227
11.2643 3.99675 667.903
12.417 4.87665 666.779
12.1266 4.8786 666.848
10.9921 2.81335 669.524
10.6928 3.1112 669.002
10.979 3.40552 668.514
11.2667 3.70014 668.147
11.5552 3.99481 667.834
11.5522 4.29103 667.563
11.8395 4.58493 667.203
11.8428 4.28906 667.49
12.1302 4.58305 667.144
10.9833 3.10904 668.886
11.2699 3.40354 668.437
11.5583 3.6984 668.115
11.2747 3.10713 668.825
11.5612 3.40166 668.382
11.8492 3.69644 668.044
11.8463 3.99296 667.781
12.1339 4.28725 667.442
