27.36 9.4431 601.056
27.6248 9.44182 601.028
27.3713 9.71642 601.27
27.6339 9.71434 601.191
27.8897 9.44056 601
27.8974 9.71259 601.132
27.3833 9.99017 601.499
27.648 9.98879 601.462
28.1517 9.43833 600.91
27.91 9.98645 601.368
28.1571 9.70951 600.991
28.1529 9.16936 600.969
27.3986 10.2654 601.799
28.4137 9.43609 600.82
28.4165 9.16764 600.912
28.1675 9.98254 601.178
27.6622 10.2636 601.738
27.9246 10.2613 601.648
28.4141 9.70555 600.795
28.6747 9.43354 600.71
28.4228 9.9779 600.946
28.6789 9.16557 600.832
27.4124 10.5402 602.067
27.6779 10.5391 602.044
27.943 10.5378 602.012
28.6752 9.70304 600.689
28.9408 9.16333 600.741
28.4363 10.2521 601.197
28.2021 10.5343 601.85
28.4535 10.5279 601.528
28.68 9.97398 600.756
28.9368 9.43139 600.625
28.9368 9.70066 600.591
28.6908 10.2471 600.948
28.9415 9.97156 600.656
29.2025 9.16105 600.647
27.4295 10.8167 602.409
27.6931 10.8148 602.34
27.9587 10.8136 602.314
28.2199 10.8108 602.196
28.4718 10.8044 601.879
29.1987 9.69844 600.503
29.1992 9.42932 600.546
28.7033 10.5211 601.176
28.9607 10.517 600.988
28.7193 10.7965 601.477
28.9715 10.7905 601.18
28.7389 11.0736 601.854
28.95 10.2438 600.799
29.2028 9.96909 600.554
29.4611 9.69638 600.424
29.2115 10.2414 600.7
29.2201 10.5138 600.843
29.4615 9.42722 600.465
29.7252 9.42558 600.412
27.4469 11.0935 602.755
27.7078 11.0905 602.626
27.9714 11.0885 602.554
27.7226 11.3665 602.913
28.2338 11.0861 602.457
28.489 11.0808 602.21
28.9895 11.0668 601.519
29.4642 9.96667 600.455
29.7237 9.69437 600.349
29.2311 10.7872 601.037
29.4797 10.5107 600.706
29.4914 10.7843 600.911
29.246 11.0623 601.311
29.5046 11.0586 601.147
29.0107 11.3447 601.928
28.7588 11.3512 602.239
29.2642 11.3389 601.653
29.4705 10.2381 600.55
29.7262 9.96445 600.368
29.9871 9.69263 600.291
29.7322 10.2358 600.457
29.7419 10.5084 600.62
29.9898 9.96278 600.313
27.9803 11.3621 602.712
27.9904 11.6363 602.895
28.243 11.3597 602.621
28.2507 11.6329 602.75
28.2628 11.908 602.974
28.5033 11.3564 602.479
29.5215 11.3346 601.458
29.7524 10.7816 600.8
29.7652 11.0557 601.026
30.0049 10.5065 600.552
30.0154 10.7796 600.73
29.7786 11.3303 601.265
30.0255 11.0527 600.9
29.2828 11.616 602.002
29.0282 11.6215 602.256
29.5385 11.6109 601.772
28.7724 11.6266 602.49
28.5134 11.6305 602.659
29.9956 10.234 600.398
30.2583 10.232 600.325
30.2665 10.5042 600.457
28.524 11.9049 602.848
28.7835 11.9012 602.689
28.5405 12.1821 603.164
28.2811 12.186 603.331
30.2759 10.7768 600.61
29.2975 11.8918 602.271
29.5559 11.8877 602.095
29.0422 11.8971 602.514
