-31.6798 33.196 602.271
-31.4347 33.2083 602.467
-31.4183 32.9248 602.125
-31.66 32.9092 601.866
-31.1772 32.9413 602.4
-31.4476 33.4883 602.741
-31.1901 33.2213 602.677
-31.1578 32.6547 601.997
-30.923 32.944 602.424
-31.1993 33.4976 602.882
-30.9357 33.224 602.7
-30.9422 33.4976 602.855
-31.3928 32.6321 601.607
-30.8965 32.6497 601.88
-31.6263 32.6085 601.198
-30.6579 32.9352 602.238
-30.6702 33.2149 602.508
-31.2039 33.7692 603
-30.9452 33.7675 602.943
-31.2037 34.0356 603.025
-30.6777 33.4895 602.683
-30.631 32.6403 601.681
-30.4034 33.2041 602.286
-30.6802 33.7588 602.762
-30.3894 32.9226 601.98
-30.1371 33.1938 602.073
-30.4117 33.4797 602.48
-30.9449 34.0337 602.965
-30.9405 34.2955 602.908
-30.6798 34.0249 602.782
-30.9323 34.553 602.776
-30.4147 33.7495 602.569
-30.1223 32.9113 601.748
-29.8587 32.9037 601.583
-30.1467 33.4708 602.295
-30.1502 33.7411 602.392
-30.4132 34.0144 602.568
-30.6757 34.287 602.731
-29.8711 33.1836 601.862
-29.8823 33.4625 602.118
-29.6215 33.4582 602.013
-29.6119 33.181 601.788
-30.671 34.5483 602.666
-30.9253 34.8117 602.668
-30.4114 34.2789 602.56
-30.6638 34.8067 602.553
-30.9169 35.0688 602.533
-30.4079 34.5415 602.52
-30.1501 34.0076 602.42
-29.8869 33.7341 602.241
-29.8866 34.0002 602.263
-30.1474 34.2711 602.396
-29.6276 33.998 602.196
-29.3758 34.004 602.276
-30.4032 34.8027 602.457
-31.1778 35.0732 602.637
-30.6564 35.0649 602.438
-30.9093 35.3266 602.414
-30.1458 34.5357 602.392
-30.3968 35.0619 602.359
-31.1704 35.3313 602.521
-30.6495 35.3234 602.331
-30.9038 35.5867 602.334
-30.1434 34.7995 602.374
-29.8869 34.267 602.298
-29.6311 34.2685 602.297
-29.8875 34.5343 602.339
-29.3812 34.2769 602.417
-29.6365 34.5414 602.437
-30.1402 35.0624 602.339
-29.8884 34.8019 602.387
-31.165 35.5916 602.444
-30.645 35.5846 602.27
-30.9023 35.8516 602.335
-30.1389 35.3275 602.343
-29.8895 35.0698 602.439
-30.6451 35.8513 602.302
-30.9054 36.1215 602.422
-29.6397 34.8119 602.532
-29.8907 35.3379 602.492
-30.3897 35.8531 602.304
-30.1379 35.5928 602.351
-30.6466 36.1195 602.36
-30.3938 36.1245 602.413
-29.8923 35.6064 602.554
-30.1407 35.8627 602.435
-29.6454 35.352 602.705
-30.9107 36.3944 602.555
-30.652 36.3925 602.495
-30.3994 36.3979 602.555
-29.6483 35.6224 602.795
-30.1465 36.1363 602.581
-30.9196 36.6716 602.757
-30.6608 36.6696 602.696
-30.4079 36.6748 602.751
-30.1601 36.6863 602.912
-30.9314 36.9523 603.015
-30.6715 36.9492 602.935
-30.4178 36.9536 602.977
-30.171 36.9666 603.16
-30.4284 37.2334 603.215
-30.6833 37.2304 603.195
