-28.8394 53.8743 649.861
-27.6213 52.8064 647.136
-27.6072 52.4915 646.769
-27.6353 53.1214 647.501
-27.597 52.1844 646.494
-27.587 51.8778 646.222
-32.849 51.748 652.455
-32.5672 51.4539 652.325
-32.8558 52.0483 652.622
-32.5767 51.7584 652.547
-32.2931 51.4614 652.382
-31.7429 51.7634 652.494
-32.0266 51.771 652.629
-31.4701 52.0634 652.617
-32.3028 51.7665 652.61
-31.1976 52.3644 652.751
-30.9111 52.6418 652.591
-31.7579 52.0776 652.835
-28.6002 49.9894 644.047
-28.3291 50.2839 644.15
-28.85 49.3725 643.436
-29.1253 49.0864 643.437
-28.5812 49.67 643.583
-28.0664 50.5941 644.449
-28.048 50.2744 643.99
-28.3135 49.97 643.76
-31.0405 46.4988 643.158
-30.2135 47.0663 643.072
-29.9412 47.3561 643.128
-29.6635 47.6375 643.07
-29.386 48.2048 643.049
-29.1033 48.7637 642.917
-29.3734 47.8987 642.74
-29.0885 48.4533 642.554
-28.8273 49.0479 642.896
-27.8387 51.2564 645.604
-27.8078 50.9127 644.852
-27.7835 50.5816 644.253
-27.574 51.5659 645.88
-27.5515 51.2367 645.318
-27.5219 50.8948 644.587
-27.3067 51.8713 646.102
-27.3177 52.18 646.4
-27.328 52.4875 646.681
-27.3408 52.8001 647.021
-27.3525 53.1111 647.337
-27.9406 53.7515 648.261
-27.6469 53.4321 647.811
-28.5536 54.1493 649.687
-28.2462 54.0934 648.977
-28.266 54.4206 649.47
-27.9495 54.0573 648.503
-27.655 53.7362 648.037
-27.3632 53.4202 647.627
-27.9631 54.3725 648.856
-27.3731 53.728 647.898
-27.662 54.0386 648.239
-30.0096 53.1088 651.158
-29.146 53.9267 650.532
-30.0365 53.4461 651.775
-28.8601 54.2024 650.363
-28.5757 54.4806 650.227
-27.0607 52.7946 646.913
-27.0697 53.1004 647.167
-27.0501 52.486 646.623
-27.0781 53.4052 647.405
-27.0392 52.177 646.324
-27.0275 51.8668 646.007
-32.585 52.0612 652.746
-32.8634 52.3499 652.805
-32.5937 52.3647 652.951
-32.3129 52.0724 652.847
-32.037 52.0775 652.872
-31.4877 52.3824 653.016
-31.7686 52.3851 653.088
-31.2156 52.6845 653.159
-30.931 52.9658 653.045
-31.5016 52.6956 653.337
-30.6315 53.221 652.612
-31.2293 52.9978 653.48
-32.0462 52.3824 653.093
-28.0313 49.9584 643.573
-27.7645 50.2605 643.774
-28.5605 49.3482 643.083
-28.2967 49.6543 643.343
-28.2787 49.3368 642.896
-28.0151 49.6433 643.163
-27.4993 50.5663 644.02
-27.481 50.2464 643.555
-27.7489 49.9461 643.377
-29.6351 47.3066 642.42
-29.3568 47.5863 642.342
-29.0795 48.1529 642.321
-28.809 48.7313 642.452
-28.5419 49.0303 642.628
-29.0711 47.8537 642.1
-28.7937 48.42 642.075
-28.524 48.7142 642.191
-28.2614 49.021 642.469
-27.2917 51.5555 645.711
-27.2661 51.2199 645.068
-27.2391 50.8824 644.392
-27.216 50.5526 643.807
-27.0103 51.5463 645.558
-26.9831 51.2073 644.871
-26.9569 50.8708 644.207
-26.7472 51.8601 645.885
-26.7595 52.1717 646.219
-26.7697 52.4796 646.505
-26.7779 52.7837 646.742
-27.3796 54.0293 648.088
-27.09 53.7172 647.728
-28.2898 54.7556 650.052
-27.9862 54.7065 649.429
-27.6721 54.3469 648.512
-27.6917 54.6745 649.009
-27.7226 55.0248 649.769
-27.3887 54.3361 648.342
-27.0998 54.0252 648
-27.4047 54.6567 648.757
-26.8185 54.018 647.874
-27.11 54.3343 648.281
-30.3221 53.1681 651.923
-29.7679 54.0443 652.031
-30.0609 53.7794 652.338
-30.3454 53.4988 652.458
-29.4753 54.3096 651.73
-29.1632 54.248 650.951
-28.8778 54.5251 650.797
-28.5966 54.81 650.738
-29.1867 54.5815 651.511
-30.0856 54.1139 652.91
-29.7973 54.3879 652.71
-28.0174 55.0571 650.191
-26.7845 53.0848 646.938
-26.7913 53.3865 647.14
-26.8037 53.6997 647.478
-26.5171 53.6815 647.218
-26.4758 52.1584 646.016
-32.3209 52.3751 653.041
-32.6017 52.6673 653.143
-32.3299 52.6795 653.254
-31.7808 52.6953 653.372
-32.0563 52.6889 653.332
-31.5145 53.0074 653.636
-30.9487 53.2863 653.452
-30.6597 53.5602 653.246
-31.7924 53.0047 653.642
-30.3714 53.8349 653.051
-31.2436 53.3125 653.812
-31.5255 53.3163 653.899
-27.4669 49.9345 643.189
-27.9984 49.3281 642.745
-27.7341 49.6335 642.999
-27.7201 49.3225 642.636
-27.4546 49.6261 642.865
-26.9345 50.542 643.635
-27.1985 50.2338 643.356
-26.9168 50.2225 643.174
-29.3309 47.2593 641.741
-29.0594 47.5494 641.808
-28.785 48.1203 641.848
-28.5101 48.4051 641.842
-28.2448 48.7068 642.055
-27.9826 49.0144 642.345
-28.7772 47.8221 641.639
-28.4987 48.1007 641.55
-27.9667 48.7012 641.944
-28.2296 48.3953 641.674
-27.7065 49.0127 642.285
-26.7278 51.5351 645.38
-26.7012 51.1966 644.698
-26.6751 50.8599 644.031
-26.4635 51.8467 645.68
-26.4428 51.5187 645.135
-26.4167 51.1808 644.459
-26.4865 52.4674 646.316
-26.4942 52.7708 646.544
-26.4986 53.0677 646.69
-26.5321 54.0004 647.622
-28.3193 55.1025 650.767
-27.4314 54.9993 649.428
-27.1243 54.6519 648.661
-27.1455 54.9839 649.207
-27.4613 55.3489 650.174
-27.1712 55.3254 649.858
-26.831 54.332 648.214
-26.8456 54.6506 648.606
-26.8637 54.9767 649.082
-26.5473 54.32 648.032
-29.5049 54.6543 652.42
-29.2171 54.9287 652.226
-28.9026 54.8617 651.391
-28.6246 55.1536 651.411
-28.9343 55.2121 652.143
-30.1106 54.4493 653.486
-29.8223 54.7241 653.293
-30.4003 54.1767 653.707
-29.5376 55.0053 653.177
-27.7556 55.3801 650.582
-28.0499 55.4107 650.981
-26.505 53.3687 646.884
-26.2319 53.6656 646.988
-26.2467 53.9844 647.391
-25.9636 53.973 647.215
-25.9503 53.6569 646.843
-26.1995 52.4476 646.033
-26.1873 52.1354 645.693
-32.6108 52.9721 653.358
-32.3389 52.9842 653.469
-32.0667 52.9961 653.576
-31.8019 53.3107 653.87
-32.0746 53.2993 653.769
-30.9691 53.6119 653.915
-30.6886 53.9012 653.895
-31.2572 53.6262 654.13
-31.5366 53.6255 654.161
-31.8111 53.6165 654.091
-27.1855 49.9236 643.011
-27.1739 49.6163 642.7
-27.4438 49.3207 642.575
-29.031 47.2181 641.146
-28.7638 47.5149 641.305
-27.951 48.3886 641.549
-27.69 48.6981 641.867
-28.4863 47.7947 641.235
-28.2156 48.0862 641.32
-26.1735 51.8205 645.314
-26.153 51.4926 644.77
-25.8756 51.7779 644.746
-26.2092 52.755 646.311
-26.2141 53.0529 646.47
-26.221 53.355 646.679
-25.9394 53.3461 646.531
-26.2623 54.3052 647.814
-25.9783 54.2923 647.621
-28.3486 55.4495 651.477
-26.8851 55.31 649.637
-26.5646 54.6446 648.494
-26.5828 54.9712 648.976
-26.6011 55.2985 649.461
-27.1943 55.6623 650.45
-26.9042 55.639 650.137
-27.4871 55.6908 650.823
-26.6189 55.6253 649.935
-26.2786 54.628 648.257
-26.2973 54.956 648.757
-26.3139 55.2801 649.205
-25.9929 54.6117 648.024
-29.2495 55.28 652.984
-28.6543 55.501 652.122
-28.9614 55.5544 652.79
-28.0754 55.7513 651.611
-28.373 55.7874 652.073
-28.6764 55.8344 652.663
-30.1322 54.7792 653.99
-29.8442 55.055 653.807
-30.4241 54.5099 654.253
-30.7115 54.2322 654.417
-29.2694 55.6084 653.465
-27.7805 55.7198 651.202
-27.2128 55.9902 650.929
-27.5034 56.0139 651.245
-25.6721 53.6551 646.782
-25.6843 53.9692 647.13
-25.6975 54.2858 647.504
-25.4064 53.9684 647.081
-25.3927 53.6509 646.692
-25.6581 53.3378 646.391
-25.9225 52.7354 646.032
-25.9088 52.4199 645.653
-25.9314 53.0416 646.293
-25.8929 52.1001 645.216
-32.6217 53.2797 653.607
-32.3481 53.2893 653.686
-32.0844 53.6059 654.001
-32.3588 53.5971 653.934
-30.987 53.9335 654.327
-31.2699 53.9386 654.429
-31.5463 53.9326 654.395
-31.8207 53.9233 654.322
-32.0937 53.9119 654.223
-28.4627 47.4705 640.67
-28.1962 47.7684 640.845
-27.9326 48.0718 641.091
-25.5957 52.0582 644.659
-25.6132 52.3814 645.14
-25.3203 52.3478 644.687
-25.6459 53.0244 646.044
-25.7115 54.6043 647.896
-25.4189 54.2838 647.441
-25.4317 54.6001 647.807
-27.7975 56.0442 651.638
-26.3316 55.6069 649.681
-26.0095 54.9356 648.476
-26.0245 55.2567 648.89
-26.0423 55.5842 649.375
-26.9226 55.9669 650.618
-26.6348 55.9484 650.363
-26.3474 55.9302 650.11
-27.226 56.3077 651.284
-26.0606 55.9131 649.871
-25.7253 54.9226 648.283
-25.7393 55.2419 648.676
-25.7555 55.5661 649.123
-25.4452 54.9183 648.192
-28.9761 55.8732 653.157
-28.3923 56.116 652.555
-28.0941 56.0788 652.081
-28.6967 56.1647 653.161
-27.8125 56.3648 652.026
-27.5167 56.3312 651.598
-30.1529 55.1076 654.472
-30.4448 54.838 654.732
-30.7269 54.5503 654.779
-31.0012 54.2491 654.66
-31.2796 54.2461 654.664
-31.011 54.5573 654.902
-29.0007 56.2115 653.746
-26.9363 56.2856 650.989
-26.6486 56.2674 650.737
-26.9489 56.6024 651.333
-27.2398 56.6265 651.651
-25.1252 53.9607 646.948
-25.139 54.2792 647.345
-24.8536 54.2623 647.104
-25.1079 53.6351 646.462
-25.3741 53.3235 646.179
-24.837 53.9375 646.63
-25.6314 52.7065 645.639
-25.3559 52.9972 645.674
-31.5564 54.2405 654.637
-31.8306 54.2307 654.558
-27.9065 47.742 640.455
-28.1605 47.4235 639.998
-25.0477 52.6436 644.79
-25.3367 52.6694 645.145
-24.7787 52.9476 644.991
-25.066 52.9699 645.303
-25.0873 53.303 645.891
-25.1528 54.5979 647.74
-24.8696 54.5861 647.561
-25.166 54.9157 648.121
-27.5336 56.6564 652.036
-25.7727 55.893 649.597
-25.4588 55.237 648.578
-25.4732 55.5576 648.984
-25.4876 55.8789 649.393
-26.3622 56.2518 650.516
-26.0751 56.2341 650.27
-25.7871 56.2142 650.001
-26.661 56.5839 651.079
-25.4999 56.1957 649.745
-25.1799 55.2355 648.52
-25.1926 55.5528 648.888
-25.2048 55.8695 649.243
-24.8847 54.9085 647.996
-28.1281 56.7282 652.944
-27.829 56.6889 652.451
-28.4444 56.8012 653.825
-27.2577 56.9545 652.119
-30.1767 55.4425 655.025
-30.4615 55.1593 655.126
-29.8877 55.7176 654.83
-30.7397 54.8642 655.085
-31.0223 54.8682 655.173
-31.2897 54.5546 654.91
-31.5659 54.5477 654.867
-31.2999 54.8634 655.157
-28.7602 56.8717 654.678
-29.05 56.5986 654.894
-28.1551 57.0737 653.607
-26.3751 56.5695 650.873
-26.089 56.5543 650.658
-26.678 56.9106 651.534
-26.9668 56.9304 651.802
-26.3925 56.8973 651.342
-24.5662 54.2407 646.806
-24.5823 54.5652 647.273
-24.2974 54.5493 647.044
-24.8184 53.6088 646.106
-24.5486 53.9134 646.303
-24.2816 54.225 646.58
-24.799 53.2789 645.56
-31.8403 54.538 654.791
-27.8658 47.3881 639.485
-24.5107 53.2542 645.221
-24.225 53.2348 644.947
-24.243 53.5625 645.469
-24.5293 53.5828 645.752
-24.5982 54.8896 647.733
-24.3131 54.8735 647.502
-24.8976 55.2264 648.373
-24.6112 55.2079 648.117
-27.5538 56.9887 652.551
-25.2155 56.183 649.559
-24.9094 55.5421 648.722
-24.9207 55.857 649.058
-24.93 56.1677 649.341
-25.8004 56.5333 650.375
-25.5114 56.5111 650.079
-25.2261 56.4968 649.874
-26.1077 56.8853 651.164
-24.9394 56.4789 649.627
-24.6231 55.5243 648.473
-24.6352 55.8411 648.833
-24.6458 56.1551 649.155
-24.326 55.192 647.889
-27.852 57.0266 653.027
-27.5754 57.3244 653.101
-27.8749 57.3647 653.602
-27.28 57.2919 652.689
-28.4648 57.1333 654.331
-28.1747 57.4048 654.1
-28.4744 57.4441 654.588
-26.9885 57.267 652.365
-26.7004 57.249 652.119
-30.4766 55.478 655.485
-30.199 55.775 655.544
-30.7519 55.1772 655.379
-29.916 56.062 655.486
-31.0325 55.1774 655.422
-30.7619 55.4865 655.626
-30.4909 55.7956 655.827
-31.3092 55.1709 655.385
-31.5755 54.8553 655.1
-31.5832 55.1598 655.293
-28.7779 57.1983 655.116
-29.0765 56.942 655.528
-28.4791 57.7452 654.733
-28.7862 57.5067 655.343
-29.3589 56.6535 655.57
-29.3729 56.9723 655.917
-27.8928 57.6929 654.058
-27.5963 57.6592 653.635
-25.8202 56.8672 650.915
-26.416 57.2386 651.96
-26.131 57.2268 651.784
-25.8453 57.2133 651.589
-24.0159 54.5404 646.899
-24.0312 54.8643 647.354
-23.7371 54.5379 646.83
-23.7516 54.8603 647.267
-24.2627 53.8942 646.033
-23.981 53.8842 645.873
-23.7221 54.2146 646.377
-23.9618 53.553 645.314
-24.0437 55.1822 647.734
-23.7649 55.1804 647.673
-24.3381 55.5089 648.253
-24.0547 55.4969 648.073
-24.6553 56.4668 649.447
-24.3496 55.8247 648.602
-24.3614 56.1416 648.958
-24.3695 56.4503 649.217
-24.9519 56.7975 649.995
-24.6653 56.7799 649.752
-25.5539 57.1866 651.245
-24.3763 56.7562 649.441
-24.0654 55.8113 648.405
-24.0769 56.1277 648.757
-23.7743 55.4918 647.974
-27.3025 57.6303 653.266
-27.0127 57.6096 652.99
-27.3247 57.9687 653.836
-26.7272 57.5975 652.812
-28.1864 57.7201 654.408
-27.9059 58.0115 654.402
-28.1967 58.0329 654.685
-28.4874 58.0535 654.959
-26.4441 57.5907 652.693
-26.158 57.5771 652.499
-30.772 55.7963 655.876
-31.0413 55.4845 655.643
-30.2183 56.1022 655.996
-30.5031 56.1096 656.123
-29.9414 56.4014 656.077
-31.318 55.4777 655.603
-31.0487 55.7891 655.832
-30.7793 56.1011 656.065
-28.783 57.7921 655.307
-29.0917 57.2638 655.907
-29.9539 56.7168 656.385
-29.9679 57.0354 656.727
-30.2324 56.4203 656.338
-27.616 57.9917 654.138
-27.0368 57.9524 653.611
-25.2587 57.1508 650.795
-25.8705 57.5601 652.264
-25.5815 57.5392 651.987
-25.287 57.5058 651.567
-23.462 54.544 646.862
-23.4747 54.8627 647.255
-23.4492 54.2254 646.465
-23.1893 54.5557 646.961
-23.1786 54.2416 646.619
-23.2 54.8702 647.304
-23.4877 55.1824 647.657
-23.498 55.4963 647.986
-23.2116 55.1872 647.673
-23.5091 55.8122 648.335
-24.0936 56.747 649.294
-23.7965 56.1232 648.664
-23.8072 56.4384 648.999
-23.8157 56.7489 649.276
-24.6775 57.0982 650.114
-24.967 57.1223 650.43
-24.39 57.0784 649.848
-24.1055 57.0651 649.656
-24.9909 57.4677 651.094
-23.8246 57.0603 649.56
-23.521 56.1303 648.706
-23.2233 55.5046 648.043
-26.7532 57.9452 653.488
-26.4708 57.9403 653.392
-27.0583 58.2901 654.169
-27.3455 58.3044 654.371
-26.7743 58.2826 654.043
-26.1855 57.929 653.223
-27.6314 58.3159 654.542
-27.9185 58.3295 654.736
-28.2145 58.3614 655.135
-25.8958 57.9077 652.941
-25.6055 57.8847 652.641
-30.5143 56.422 656.398
-30.2443 56.7345 656.63
-30.2553 57.0473 656.904
-26.4908 58.2757 653.925
-24.6964 57.4327 650.656
-25.3145 57.8595 652.316
-25.0214 57.8289 651.93
-24.7245 57.7889 651.437
-22.9169 54.5684 647.072
-22.9265 54.8809 647.39
-22.9074 54.2567 646.759
-22.8943 53.9368 646.345
-22.6433 54.5788 647.155
-22.6339 54.2671 646.843
-22.6245 53.9552 646.526
-22.6526 54.8908 647.467
-22.9368 55.1952 647.726
-22.9485 55.5131 648.101
-23.2357 55.8243 648.434
-22.6622 55.2037 647.786
-22.9586 55.8274 648.43
-23.5395 56.7551 649.306
-23.5319 56.4465 649.051
-23.2572 56.4562 649.122
-23.5473 57.0643 649.565
-23.2647 56.7647 649.375
-24.4057 57.4057 650.309
-24.119 57.3877 650.064
-23.8355 57.3771 649.903
-24.43 57.7537 650.999
-23.556 57.3758 649.847
-23.2725 57.0744 649.639
-22.97 56.1453 648.798
-22.6733 55.5206 648.148
-26.2051 58.264 653.751
-25.9157 58.2439 653.485
-26.7928 58.6146 654.532
-27.0762 58.6206 654.64
-26.5067 58.6027 654.357
-27.3624 58.6324 654.814
-26.2194 58.5877 654.148
-25.6249 58.2201 653.176
-27.6515 58.6502 655.055
-25.3347 58.1972 652.877
-25.0448 58.1746 652.583
-25.9296 58.5669 653.875
-24.1377 57.7229 650.611
-24.7514 58.1431 652.188
-24.4565 58.1076 651.749
-24.1613 58.0704 651.29
-22.3693 54.5886 647.231
-22.3778 54.899 647.524
-22.3607 54.2782 646.935
-22.3519 53.9675 646.634
-22.333 53.6331 646.043
-22.0864 54.2871 647.001
-22.078 53.9771 646.709
-22.0655 53.6574 646.296
-22.1037 54.909 647.601
-22.3879 55.2134 647.859
-22.6819 55.8318 648.441
-22.3983 55.5292 648.208
-22.1134 55.223 647.932
-22.6924 56.1478 648.787
-22.4093 55.8466 648.573
-22.9811 56.4627 649.155
-22.9902 56.7755 649.457
-22.7034 56.4656 649.148
-23.2796 57.3825 649.882
-22.9977 57.0848 649.716
-22.7132 56.7803 649.471
-23.8495 57.7013 650.327
-23.5656 57.69 650.157
-23.8684 58.0382 650.887
-23.2864 57.6897 650.114
-23.0048 57.3932 649.962
-22.4175 56.1573 648.855
-22.124 55.5395 648.288
-25.6383 58.5423 653.558
-25.3478 58.5189 653.256
-26.5189 58.9217 654.698
-26.8055 58.9346 654.883
-26.2314 58.9066 654.488
-27.0904 58.9433 655.021
-25.941 58.8847 654.203
-27.3808 58.9641 655.294
-25.6502 58.8613 653.901
-25.0588 58.4987 652.988
-25.3604 58.8399 653.622
-24.7692 58.4766 652.701
-24.4784 58.451 652.374
-25.6603 59.1767 654.201
-23.58 58.0161 650.598
-24.1873 58.4243 652.033
-23.8937 58.391 651.621
-23.9185 58.7432 652.34
-23.5997 58.3557 651.185
-21.8203 54.6063 647.361
-21.829 54.9179 647.667
-21.8106 54.2923 647.024
-21.801 53.9791 646.693
-21.7912 53.6656 646.355
-21.5075 53.3613 646.086
-21.5166 53.6734 646.409
-21.5354 54.2994 647.069
-21.5258 53.9857 646.733
-21.5542 54.9268 647.731
-21.8388 55.2326 648.004
-22.1343 55.8556 648.637
-21.849 55.5486 648.354
-21.5644 55.2429 648.085
-22.4253 56.4673 649.128
-22.1419 56.1654 648.908
-21.8587 55.8636 648.689
-22.722 57.0932 649.771
-22.4342 56.7804 649.432
-23.0095 57.6956 650.139
-22.7291 57.4019 650.02
-22.4437 57.0952 649.753
-23.296 58.0046 650.428
-23.3096 58.3294 650.851
-23.0157 58.0021 650.359
-22.7333 57.7033 650.184
-22.4518 57.4068 650.034
-22.1477 56.4706 649.125
-21.8665 56.1741 648.968
-21.5751 55.5606 648.454
-25.0718 58.8208 653.368
-24.7831 58.8012 653.109
-26.242 59.2226 654.792
-26.5308 59.2405 655.032
-25.951 59.1994 654.494
-26.8172 59.2524 655.206
-27.1059 59.2694 655.435
-25.3727 59.1605 653.98
-25.6706 59.4925 654.503
-26.8292 59.5715 655.539
-27.123 59.5992 655.887
-25.0848 59.1433 653.748
-24.4946 58.7816 652.849
-24.7974 59.127 653.527
-24.2072 58.7641 652.613
-25.3824 59.4753 654.271
-25.0951 59.4597 654.058
-23.0261 58.3195 650.699
-23.6259 58.712 651.952
-23.3316 58.6762 651.512
-23.6474 59.0573 652.589
-23.9362 59.0787 652.867
-23.3561 59.0294 652.239
-23.0433 58.6543 651.228
-21.5448 54.6128 647.398
-21.2706 54.6232 647.481
-21.2793 54.9357 647.796
-21.2625 54.3125 647.185
-21.2465 53.6926 646.601
-21.2381 53.3822 646.3
-21.2302 53.0731 646.01
-21.4984 53.0499 645.767
-20.9601 53.0921 646.202
-20.9687 53.4033 646.516
-21.2542 54.0017 646.885
-21.0054 54.9475 647.895
-21.2906 55.2549 648.186
-21.5846 55.8756 648.788
-21.3026 55.5767 648.601
-22.1547 56.7791 649.376
-21.8714 56.4772 649.16
-21.312 55.8919 648.937
-22.1631 57.0914 649.668
-22.7377 58.0055 650.356
-22.4569 57.7107 650.226
-22.172 57.4054 649.977
-21.8846 57.093 649.646
-22.7461 58.318 650.641
-22.7605 58.6466 651.101
-22.4613 58.0132 650.401
-22.1791 57.7148 650.231
-21.8776 56.7839 649.39
-21.5978 56.4913 649.281
-24.5097 59.1096 653.293
-24.2229 59.0941 653.08
-25.9611 59.5149 654.791
-26.2526 59.5389 655.096
-26.5423 59.5584 655.354
-25.6801 59.807 654.787
-26.5573 59.8847 655.763
-24.8077 59.4437 653.84
-25.3907 59.7871 654.527
-25.1034 59.7717 654.316
-26.2643 59.8579 655.429
-26.8509 59.9124 656.109
-26.584 60.2379 656.463
-24.5219 59.4311 653.66
-24.2354 59.4167 653.46
-24.8166 59.7574 654.118
-24.5299 59.743 653.918
-22.4684 58.323 650.654
-23.0662 59.0045 651.922
-22.781 58.991 651.732
-23.3743 59.3675 652.793
-23.6616 59.3849 653.026
-23.0879 59.3519 652.58
-23.949 59.4023 653.259
-22.8028 59.3395 652.401
-22.4806 58.646 651.053
-22.4985 58.9844 651.617
-20.9963 54.6335 647.563
-20.9888 54.3241 647.284
-20.7314 54.9595 647.996
-20.9826 54.0183 647.043
-20.7125 54.3291 647.303
-20.9761 53.7119 646.794
-20.6977 53.4213 646.693
-20.688 53.1067 646.34
-20.7046 53.7288 646.958
-20.7091 54.0303 647.148
-20.458 54.9733 648.119
-20.7441 55.2835 648.44
-20.7581 55.6118 648.93
-21.604 56.7983 649.514
-21.8931 57.4062 649.946
-21.6101 57.1054 649.745
-22.1849 58.0213 650.45
-21.901 57.7181 650.227
-21.6177 57.4166 650.022
-22.1913 58.3292 650.682
-22.2024 58.6501 651.056
-21.9079 58.0277 650.481
-21.6239 57.7244 650.257
-25.9716 59.8314 655.096
-25.4012 60.1045 654.841
-25.6931 60.1297 655.158
-25.112 60.0847 654.583
-26.2849 60.1978 655.984
-25.9868 60.159 655.52
-24.2437 59.7295 653.728
-24.8244 60.0686 654.366
-24.537 60.0526 654.15
-26.011 60.5081 656.171
-26.3132 60.5558 656.731
-26.6166 60.605 657.307
-26.0387 60.8658 656.91
-25.7381 60.8214 656.388
-23.9577 59.7162 653.54
-23.6714 59.7018 653.341
-24.2503 60.0381 653.949
-21.9148 58.3375 650.733
-22.5186 59.3292 652.246
-22.2182 58.9837 651.567
-22.2367 59.3248 652.156
-23.1018 59.6801 653.02
-23.3856 59.6884 653.152
-22.819 59.6741 652.912
-22.5365 59.6686 652.81
-22.2536 59.6624 652.7
-21.9257 58.6583 651.105
-21.9403 58.989 651.585
-20.441 54.3472 647.479
-20.47 55.2963 648.55
-20.4353 54.0418 647.246
-20.4326 53.7447 647.109
-20.4293 53.4463 646.957
-20.4853 55.6286 649.085
-20.2147 55.6519 649.317
-19.9309 55.3478 649.074
-20.7766 56.2434 649.606
-21.6311 58.0351 650.522
-21.0716 57.7427 650.38
-21.6395 58.3492 650.823
-21.3547 58.0437 650.577
-25.1237 60.4053 654.93
-25.4162 60.4325 655.267
-24.8338 60.3839 654.655
-25.7125 60.4682 655.696
-24.5452 60.3652 654.41
-23.9646 60.0258 653.773
-23.6796 60.0148 653.611
-24.2565 60.3459 654.159
-23.9704 60.3328 653.975
-25.4371 60.7753 655.848
-25.4618 61.1276 656.526
-26.3389 60.9084 657.412
-25.7606 61.1681 657.004
-26.0571 61.2024 657.415
-26.6361 60.9432 657.83
-26.3512 61.2303 657.757
-26.066 61.517 657.68
-25.773 61.4912 657.361
-25.4774 61.4585 656.969
-25.1637 61.088 656.058
-25.1826 61.4272 656.592
-23.395 60.0048 653.46
-23.1105 59.9948 653.309
-23.686 60.3235 653.832
-21.3626 58.3568 650.866
-21.9572 59.3267 652.134
-21.6641 58.9995 651.659
-21.6792 59.3328 652.16
-21.9727 59.6611 652.644
-22.8282 59.9905 653.22
-22.5469 59.9889 653.16
-22.2663 59.9889 653.118
-21.6937 59.665 652.645
-21.9861 59.99 653.088
-19.9436 55.6745 649.54
-20.2266 55.976 649.751
-19.6615 55.3753 649.355
-19.6717 55.6955 649.745
-19.9542 55.9956 649.938
-20.5061 56.2675 649.843
-19.3899 55.3973 649.573
-20.7808 56.546 649.787
-20.5114 56.5736 650.064
-20.235 56.2906 650.07
-21.0775 58.0506 650.613
-20.7995 57.7637 650.575
-20.8063 58.0743 650.837
-20.5232 57.4814 650.591
-20.5196 57.1796 650.426
-24.8468 60.7083 655.041
-25.1413 60.7406 655.432
-24.5565 60.6856 654.753
-24.2671 60.665 654.489
-23.9795 60.6483 654.266
-23.4026 60.3169 653.718
-23.1195 60.3107 653.608
-23.6949 60.6389 654.122
-23.4118 60.6332 654.019
-24.867 61.0507 655.615
-24.8884 61.3967 656.223
-25.1936 61.7475 656.919
-25.4874 61.7763 657.269
-26.3567 61.537 657.936
-25.7833 61.8096 657.666
-26.6534 61.2764 658.295
-26.0754 61.833 657.958
-24.9013 61.722 656.605
-25.207 62.0742 657.312
-24.5934 61.3633 655.823
-24.6081 61.6934 656.258
-24.912 62.0422 656.93
-22.8374 60.3072 653.528
-21.1009 58.6992 651.435
-21.4008 59.3383 652.179
-21.1135 59.0265 651.873
-21.1232 59.346 652.221
-21.4147 59.6693 652.649
-21.7065 59.9931 653.08
-22.5567 60.3076 653.49
-22.2766 60.3093 653.467
-21.9972 60.3132 653.467
-21.1365 59.676 652.681
-21.7184 60.3188 653.485
-19.3986 55.7139 649.919
-19.9621 56.3094 650.246
-19.1248 55.7308 650.076
-19.4063 56.0279 650.231
-20.2411 56.5993 650.318
-20.2467 56.9069 650.551
-19.9688 56.6201 650.517
-20.2556 57.5158 650.939
-20.2575 57.8133 651.052
-20.252 57.2135 650.771
-20.2566 58.1029 651.075
-19.9818 57.2413 651.045
-19.976 56.9326 650.804
-24.5725 61.0182 655.224
-24.2824 60.9961 654.944
-23.9947 60.9797 654.725
-23.7086 60.9669 654.545
-23.1293 60.6291 653.932
-22.8476 60.6271 653.868
-23.4245 60.9591 654.42
-23.142 60.9554 654.337
-24.3016 61.3375 655.505
-24.3164 61.6681 655.947
-24.6181 62.012 656.567
-25.5053 62.1135 657.771
-25.8022 62.1488 658.188
-26.0994 62.184 658.603
-24.3264 61.9871 656.261
-24.6294 62.3345 656.914
-24.9259 62.3705 657.337
-25.228 62.4199 657.901
-24.027 61.6483 655.693
-24.037 61.9676 656.012
-24.3361 62.3056 656.567
-22.5674 60.6289 653.845
-20.8231 58.7055 651.463
-20.8336 59.0275 651.843
-20.5608 59.0488 652.036
-20.5733 59.3776 652.485
-20.8607 59.6899 652.791
-21.1484 60.0026 653.099
-21.4397 60.3251 653.511
-22.2875 60.6319 653.835
-22.0082 60.6365 653.842
-21.7289 60.6411 653.849
-20.8721 60.0154 653.196
-21.1607 60.3305 653.528
-21.4497 60.6465 653.865
-19.132 56.0437 650.374
-19.4132 56.3397 650.515
-19.1392 56.357 650.674
-19.4202 56.6523 650.805
-19.7023 56.9506 650.968
-19.9856 57.5445 651.222
-19.9876 57.8424 651.338
-19.9908 58.144 651.494
-19.7164 57.8687 651.593
-19.9965 58.4533 651.734
-19.7094 57.2635 651.257
-19.4278 56.9666 651.111
-24.0124 61.3177 655.251
-23.7257 61.304 655.062
-23.4394 61.291 654.88
-23.1554 61.2839 654.762
-22.8605 60.9541 654.281
-22.5795 60.9546 654.243
-22.8733 61.2816 654.695
-23.74 61.6342 655.5
-23.7499 61.9534 655.818
-24.0461 62.2847 656.303
-25.5297 62.4673 658.443
-25.8323 62.5158 658.997
-25.5542 62.8219 659.117
-25.2534 62.7772 658.605
-23.7581 62.2684 656.089
-24.3494 62.6335 656.968
-24.6468 62.6724 657.419
-24.0574 62.6078 656.656
-24.9482 62.7206 657.969
-24.6697 63.0251 658.074
-23.4638 61.9417 655.651
-23.4542 61.6229 655.338
-23.4717 62.2563 655.918
-23.7674 62.5865 656.39
-22.2991 60.9564 654.22
-20.2782 58.7499 651.873
-20.288 59.0708 652.237
-20.0051 58.7712 652.068
-20.015 59.0931 652.442
-20.2994 59.397 652.656
-20.0255 59.4173 652.837
-20.3106 59.723 653.069
-20.5969 60.0319 653.333
-20.8829 60.3397 653.585
-21.1714 60.6545 653.909
-22.0196 60.9612 654.229
-21.7407 60.9673 654.253
-20.6067 60.354 653.698
-20.8942 60.666 653.991
-21.4619 60.9742 654.284
-19.1461 56.6697 650.963
-18.5971 56.7039 651.275
-19.435 57.2803 651.407
-19.7191 58.1692 651.735
-19.7244 58.4776 651.964
-19.4442 57.893 651.825
-19.4401 57.5881 651.634
-19.1657 57.606 651.795
-19.7324 58.7945 652.284
-19.4521 58.5023 652.198
-19.1595 57.2945 651.527
-23.1696 61.6147 655.207
-22.8864 61.6099 655.114
-22.5922 61.2822 654.659
-22.3114 61.2835 654.631
-22.6043 61.6085 655.056
-23.1787 61.9324 655.51
-23.1863 62.2463 655.77
-23.48 62.572 656.194
-24.9698 63.0693 658.58
-25.8552 62.8658 659.621
-25.2688 63.1101 659.049
-25.5659 63.1454 659.46
-25.2754 63.4213 659.263
-24.9842 63.4006 659.004
-24.689 63.3691 658.633
-23.1949 62.5632 656.059
-24.0764 62.9513 657.218
-23.7836 62.9235 656.884
-24.3717 62.9851 657.614
-23.4949 62.9059 656.657
-24.3924 63.3332 658.217
-24.0966 63.2987 657.815
-22.8951 61.9271 655.411
-22.9015 62.2379 655.639
-22.9097 62.5543 655.922
-23.2076 62.8917 656.466
-22.0318 61.2882 654.638
-19.7424 59.1174 652.668
-19.4596 58.8179 652.502
-19.7519 59.4391 653.035
-20.0355 59.7401 653.214
-19.4691 59.1399 652.874
-19.7606 59.7588 653.376
-20.0453 60.0628 653.586
-20.3314 60.3711 653.841
-20.6183 60.6816 654.116
-21.7529 61.2951 654.669
-21.4742 61.3028 654.708
-20.0557 60.3879 653.979
-20.9068 60.996 654.433
-20.3426 60.6981 654.252
-21.1955 61.3109 654.752
-18.3233 56.724 651.464
-18.6038 57.017 651.563
-18.0438 56.4337 651.396
-18.3296 57.0365 651.745
-18.0498 56.7454 651.669
-18.3106 56.0993 650.897
-18.8843 57.3103 651.666
-18.0385 56.1244 651.147
-19.1707 57.9139 652.019
-18.8912 57.6242 651.959
-18.8966 57.9336 652.2
-19.1867 58.8418 652.726
-18.9067 58.5511 652.658
-22.6127 61.9249 655.345
-22.3229 61.6085 655.014
-22.0429 61.6128 655.017
-22.331 61.9245 655.298
-22.6184 62.2343 655.557
-24.7011 63.6948 658.998
-24.4061 63.6634 658.63
-25.8694 63.1954 660.027
-25.5734 63.4587 659.695
-25.2828 63.7347 659.498
-25.5892 63.7931 660.145
-24.9944 63.7212 659.314
-25.0072 64.0489 659.694
-24.7119 64.0177 659.33
-24.4156 63.9829 658.928
-24.1114 63.632 658.261
-22.9212 62.8797 656.298
-22.6262 62.5496 655.831
-23.8032 63.2696 657.469
-23.5135 63.2498 657.221
-23.2252 63.2335 657.008
-22.9377 63.2191 656.815
-23.8186 63.6049 657.938
-24.1221 63.9551 658.599
-23.5291 63.5864 657.703
-23.8282 63.9253 658.248
-22.3368 62.2346 655.518
-22.6366 62.8725 656.179
-22.3447 62.5503 655.795
-22.6511 63.207 656.646
-21.7637 61.6193 655.044
-19.1956 59.1628 653.085
-19.4854 59.7766 653.528
-19.2034 59.4805 653.406
-19.7695 60.0793 653.723
-18.9136 58.8661 652.953
-18.9216 59.1847 653.285
-19.2103 59.7957 653.696
-19.4939 60.0965 653.868
-19.7801 60.4055 654.128
-20.6302 61.0104 654.545
-20.0668 60.7151 654.393
-21.4845 61.6261 655.072
-20.9177 61.3218 654.826
-21.205 61.6322 655.095
-19.5042 60.4222 654.267
-20.3538 61.0257 654.667
-20.6398 61.3326 654.899
-19.7911 60.7331 654.544
-20.9252 61.6378 655.112
-17.7706 56.4566 651.62
-18.0558 57.0576 651.946
-17.776 56.767 651.876
-17.7654 56.1472 651.371
-17.4927 56.1718 651.615
-18.6172 57.6445 652.148
-17.4981 56.4824 651.876
-18.0332 55.8153 650.899
-18.3052 55.7901 650.646
-18.0289 55.5094 650.685
-17.7569 55.5345 650.939
-18.623 57.9557 652.407
-18.628 58.2645 652.636
-18.3495 57.9787 652.624
-18.6335 58.5754 652.887
-18.3546 58.2884 652.862
-18.6399 58.8893 653.168
-22.0502 61.927 655.282
-21.7701 61.9313 655.285
-22.056 62.237 655.5
-24.135 64.2843 658.994
-25.3001 64.0735 659.992
-25.0329 64.4102 660.416
-24.7335 64.3688 659.948
-24.4319 64.3209 659.413
-23.8387 64.2484 658.583
-23.5383 63.9058 658.004
-22.3548 62.8728 656.14
-22.0641 62.5539 655.79
-23.241 63.5711 657.501
-22.9532 63.5563 657.305
-22.6664 63.5441 657.135
-22.3678 63.2038 656.569
-22.3812 63.5361 657.009
-23.2519 63.8956 657.855
-23.5459 64.2215 658.263
-22.9659 63.8862 657.714
-23.2594 64.2109 658.112
-21.7758 62.2416 655.506
-22.0743 62.8769 656.139
-21.7841 62.5592 655.802
-22.086 63.2048 656.536
-21.4905 61.9372 655.304
-18.9288 59.5011 653.59
-18.6469 59.2054 653.471
-18.9352 59.8152 653.866
-19.2185 60.115 654.027
-18.3603 58.6002 653.122
-18.3661 58.9128 653.387
-18.6609 59.8381 654.075
-19.2283 60.44 654.417
-20.3618 61.3437 654.975
-19.5149 60.7496 654.68
-21.2109 61.9436 655.329
-20.646 61.6453 655.148
-20.9313 61.95 655.354
-18.9524 60.4583 654.573
-18.9435 60.1356 654.209
-20.0832 61.3533 655.035
-19.8005 61.0561 654.908
-20.3665 61.6522 655.179
-19.5222 61.067 654.982
-19.2382 60.7655 654.809
-20.6517 61.9565 655.379
-17.7879 57.3923 652.433
-17.4843 55.5589 651.185
-18.0689 57.6859 652.534
-17.7532 55.2304 650.746
-18.0239 55.2014 650.445
-18.2953 55.1757 650.182
-17.4809 55.2552 650.999
-17.7472 54.9193 650.468
-18.0753 58.0004 652.827
-17.7944 57.7068 652.728
-17.8008 58.0216 653.024
-21.496 62.2471 655.521
-23.8564 64.5911 659.116
-24.1545 64.6315 659.571
-23.5599 64.5546 658.699
-24.7595 64.7321 660.686
-25.337 64.4625 660.996
-24.4549 64.6768 660.078
-24.477 65.031 660.718
-25.0619 64.7804 661.223
-24.177 64.9871 660.228
-23.2704 64.5365 658.47
-22.9742 64.2042 657.999
-21.7945 62.8834 656.163
-22.6794 63.8752 657.558
-22.3934 63.8654 657.414
-22.0986 63.5355 656.959
-22.1093 63.8609 657.324
-21.8059 63.2109 656.557
-21.8174 63.5388 656.95
-22.6883 64.1954 657.865
-22.9838 64.5262 658.321
-22.4023 64.1857 657.723
-22.6972 64.5155 658.169
-21.2167 62.2548 655.559
-21.5144 62.8892 656.182
-21.2244 62.5714 655.844
-21.5256 63.2165 656.571
-18.6691 60.1585 654.416
-18.1044 59.5651 654.167
-18.3947 60.1825 654.635
-18.1126 59.8868 654.523
-20.0874 61.6605 655.224
-19.805 61.3644 655.111
-19.2439 61.0782 655.06
-18.961 60.7803 654.926
-20.9378 62.2633 655.606
-20.372 61.9631 655.407
-18.6771 60.4791 654.755
-18.6832 60.7934 655.025
-19.8088 61.6705 655.288
-19.5267 61.3755 655.186
-18.9659 61.0905 655.149
-20.3798 62.2815 655.711
-17.5135 57.4134 652.632
-17.5204 57.7301 652.951
-18.0171 54.8883 650.142
-18.2902 54.868 649.942
-17.527 58.046 653.258
-17.2469 57.7557 653.199
-17.2535 58.0722 653.511
-23.5793 64.9031 659.286
-23.2854 64.8733 658.94
-23.877 64.9426 659.732
-22.9967 64.8577 658.737
-24.7778 65.0759 661.218
-24.1958 65.3336 660.786
-25.3611 64.8197 661.667
-25.0767 65.1148 661.657
-23.899 65.2981 660.384
-24.4929 65.3691 661.19
-24.2082 65.6631 661.17
-24.791 65.4066 661.613
-23.6004 65.2568 659.922
-23.6168 65.5979 660.425
-21.2348 62.8967 656.216
-22.1175 64.1797 657.617
-21.8267 63.8607 657.279
-21.5367 63.544 656.96
-21.834 64.1772 657.548
-21.5455 63.8647 657.276
-21.246 63.2247 656.614
-21.2563 63.5501 656.98
-22.4113 64.5066 658.034
-22.7097 64.8463 658.578
-22.1268 64.5019 657.943
-22.4238 64.8381 658.451
-20.9457 62.5813 655.904
-20.9555 62.9054 656.264
-20.6676 62.5934 655.988
-20.9672 63.2352 656.679
-18.4017 60.5 654.94
-17.8304 59.5908 654.407
-17.8383 59.9122 654.758
-17.5571 59.6193 654.678
-18.1201 60.2065 654.853
-17.8451 60.2298 655.065
-19.8144 61.9828 655.53
-19.5304 61.6818 655.365
-18.9699 61.3984 655.345
-18.6877 61.1029 655.239
-20.1015 62.2928 655.788
-18.41 61.1173 655.351
-18.1288 60.8253 655.284
-19.537 61.9975 655.642
-19.2525 61.6948 655.461
-18.6921 61.4124 655.453
-20.3894 62.6055 656.072
-19.8237 62.3064 655.888
-20.1111 62.6175 656.154
-17.2599 58.3883 653.815
-16.9802 58.0999 653.781
-16.694 57.495 653.436
-16.6876 57.1785 653.12
-16.9864 58.416 654.084
-16.4195 57.5191 653.669
-23.3048 65.2229 659.535
-23.014 65.2017 659.277
-22.7252 65.186 659.074
-22.4385 65.1762 658.931
-24.5072 65.7034 661.619
-23.9133 65.6333 660.825
-23.9257 65.9633 661.21
-25.0834 65.4282 661.876
-24.8063 65.7431 662.063
-23.3215 65.5654 660.053
-23.6291 65.9284 660.816
-24.223 65.9997 661.62
-23.9382 66.2942 661.602
-24.5213 66.0376 662.044
-23.0298 65.5424 659.777
-23.3328 65.8931 660.418
-23.0405 65.8687 660.13
-23.3445 66.2225 660.798
-20.6771 62.9169 656.341
-21.8427 64.4979 657.858
-21.5519 64.179 657.523
-21.2648 63.8706 657.293
-21.2709 64.1841 657.532
-20.9845 63.8776 657.322
-20.6887 63.2473 656.761
-20.6973 63.5686 657.084
-22.1391 64.8329 658.355
-21.8555 64.8314 658.295
-22.1536 65.171 658.834
-20.399 62.9297 656.431
-20.4097 63.258 656.829
-17.8487 60.537 655.255
-17.564 59.9381 654.998
-17.5695 60.2521 655.265
-17.2894 59.9639 655.238
-16.999 59.0493 654.692
-17.5718 60.5553 655.411
-17.2933 60.2727 655.447
-19.2599 62.0134 655.768
-18.9752 61.7103 655.583
-18.6982 61.7275 655.723
-18.4148 61.4285 655.581
-18.1324 61.1325 655.471
-19.8338 62.6332 656.276
-17.8546 61.1476 655.591
-17.8514 60.8414 655.414
-17.5742 60.8588 655.559
-18.9835 62.0324 655.926
-20.1213 62.9443 656.54
-19.2695 62.3397 656.152
-19.5568 62.6506 656.415
-16.9926 58.7322 654.384
-16.7118 58.4409 654.321
-16.7188 58.7606 654.659
-16.4138 57.2048 653.38
-16.1625 58.4933 654.824
-22.7405 65.5257 659.566
-22.4528 65.5132 659.396
-22.1671 65.5065 659.284
-21.87 65.1698 658.779
-23.6399 66.2546 661.162
-23.6538 66.5901 661.598
-24.8185 66.0721 662.434
-25.1134 65.8029 662.71
-24.5331 66.3661 662.407
-22.751 65.8518 659.916
-23.0519 66.1975 660.504
-23.3581 66.5573 661.226
-24.2367 66.3334 662.037
-23.9524 66.6302 662.039
-24.8217 66.3772 662.563
-24.2499 66.6662 662.442
-22.4631 65.8393 659.747
-22.7616 66.1787 660.272
-22.4726 66.1632 660.073
-23.0647 66.5307 660.918
-22.7733 66.509 660.658
-21.2793 64.5048 657.841
-21.5725 64.8312 658.25
-20.9907 64.1919 657.567
-20.7035 63.883 657.334
-20.9995 64.5143 657.894
-20.7098 64.1979 657.586
-20.4225 63.8881 657.343
-20.4177 63.5779 657.137
-20.1305 63.2685 656.895
-20.1375 63.5857 657.174
-21.2904 64.8342 658.236
-21.5866 65.1692 658.729
-21.8834 65.5056 659.231
-19.8438 62.9602 656.662
-19.8516 63.2801 656.972
-17.2952 60.575 655.582
-17.0162 60.2914 655.608
-16.7363 59.7087 655.533
-16.7381 60.0111 655.669
-16.7257 59.0802 654.992
-16.1695 58.8143 655.173
-17.2974 60.8782 655.725
-17.0183 60.5943 655.749
-16.7391 60.3103 655.77
-18.7071 62.052 656.09
-18.1451 61.7662 656.048
-17.8598 61.4611 655.844
-17.5774 61.1655 655.74
-19.2794 62.667 656.544
-17.5824 61.4787 655.989
-17.3009 61.1864 655.922
-18.9928 62.3583 656.305
-18.431 62.0735 656.274
-19.5663 62.9762 656.787
-19.0024 62.6853 656.692
-19.2879 62.9899 656.886
-15.8876 58.52 655.081
-15.8941 58.8399 655.417
-15.6124 58.5465 655.336
-22.1767 65.8308 659.617
-21.8921 65.8279 659.544
-21.5993 65.5037 659.168
-21.304 65.1714 658.707
-23.3721 66.8939 661.67
-23.6687 66.9287 662.058
-23.0782 66.866 661.349
-24.8212 66.6724 662.593
-24.5447 66.6942 662.765
-22.1856 66.1535 659.932
-22.4832 66.4908 660.433
-22.7864 66.8437 661.084
-23.967 66.9675 662.488
-24.2646 67.0034 662.887
-22.1955 66.4793 660.274
-21.9003 66.1487 659.84
-22.4954 66.8234 660.839
-22.2062 66.8078 660.641
-20.719 64.5219 657.928
-21.01 64.8423 658.275
-20.4285 64.2027 657.591
-20.1417 63.8945 657.365
-20.4382 64.5287 657.954
-20.1474 64.2083 657.605
-19.8571 63.5934 657.21
-19.5728 63.2927 657.059
-19.8614 63.9027 657.405
-19.5769 63.6015 657.251
-21.0221 65.1756 658.705
-21.3158 65.5035 659.122
-21.6082 65.8268 659.489
-19.2936 63.3044 657.137
-17.0207 60.8987 655.903
-16.741 60.613 655.908
-16.4618 59.7374 655.806
-16.4621 60.0347 655.885
-15.6181 58.8642 655.645
-16.4639 60.6334 656.086
-18.1544 62.0936 656.443
-17.8677 61.7837 656.191
-17.59 61.8009 656.33
-19.0095 63.0044 656.994
-18.7257 62.7051 656.857
-18.4408 62.402 656.679
-17.8773 62.113 656.606
-18.7314 63.0202 657.115
-19.0143 63.3159 657.214
-21.6157 66.1457 659.766
-21.3245 65.8262 659.439
-21.0326 65.5042 659.085
-20.7409 65.182 658.726
-23.0892 67.1945 661.711
-23.3841 67.2251 662.057
-22.7975 67.173 661.454
-23.102 67.529 662.127
-23.6817 67.2625 662.469
-23.3982 67.5626 662.501
-22.507 67.1544 661.227
-24.5542 67.0169 663.065
-24.5576 67.323 663.2
-21.9093 66.4721 660.159
-21.9197 66.8002 660.521
-22.2179 67.1398 661.038
-23.9813 67.3046 662.929
-24.2771 67.335 663.273
-21.6238 66.4671 660.064
-21.3316 66.1444 659.708
-21.9312 67.132 660.917
-21.6332 66.7923 660.398
-20.1575 64.5364 657.988
-20.45 64.862 658.387
-19.8674 64.2176 657.656
-19.8777 64.5471 658.054
-20.1698 64.8717 658.441
-19.5883 64.2304 657.744
-19.5819 63.9136 657.475
-19.3022 63.9244 657.542
-19.018 63.6241 657.397
-20.4598 65.1893 658.756
-20.7503 65.5079 659.078
-21.0404 65.8247 659.38
-18.7346 63.3269 657.285
-16.4674 60.9423 656.288
-16.1884 60.6604 656.335
-16.1918 60.9695 656.539
-15.9132 60.6892 656.605
-18.1638 62.4217 656.843
-17.5997 62.1313 656.756
-18.453 63.0354 657.231
-18.4486 62.7244 657.016
-18.1704 62.7406 657.142
-17.6082 62.4573 657.131
-18.4553 63.3393 657.37
-18.1736 63.0476 657.314
-18.7387 63.6367 657.485
-21.3385 66.4624 659.974
-21.0471 66.1422 659.642
-20.7568 65.8247 659.335
-20.4683 65.5126 659.082
-20.1798 65.2 658.82
-22.8095 67.5052 661.849
-22.5192 67.4879 661.635
-22.23 67.4733 661.447
-22.8224 67.8407 662.273
-23.1164 67.8681 662.585
-22.5317 67.8223 662.048
-23.6984 67.6071 662.982
-23.4142 67.9062 663.001
-21.9416 67.4608 661.279
-24.2842 67.6521 663.513
-23.9962 67.6434 663.383
-24.2905 67.9669 663.728
-21.644 67.1224 660.778
-21.3464 66.7837 660.269
-21.3552 67.108 660.592
-21.6539 67.4502 661.131
-24.0079 67.9739 663.752
-21.0536 66.459 659.895
-20.763 66.1408 659.584
-21.3658 67.4383 660.969
-21.0616 66.7809 660.196
-19.5985 64.5598 658.139
-19.8898 64.8825 658.507
-19.3097 64.2452 657.852
-19.3195 64.5741 658.242
-19.6095 64.8925 658.565
-19.8995 65.2104 658.882
-19.0231 63.9374 657.632
-18.7443 63.9519 657.738
-18.4589 63.648 657.557
-20.1868 65.5192 659.104
-20.4739 65.8268 659.313
-15.9166 60.999 656.813
-15.6462 61.3458 657.374
-16.7613 61.8724 656.961
-15.367 61.0649 657.438
-17.892 62.7564 657.264
-17.0456 62.1735 657.116
-17.3298 62.474 657.264
-18.1759 63.3519 657.457
-17.8944 63.0612 657.413
-17.6131 62.7712 657.376
-17.3339 62.7853 657.481
-17.0514 62.4911 657.401
-17.897 63.3669 657.569
-18.4657 63.9678 657.857
-20.7697 66.4588 659.849
-20.4796 66.1418 659.55
-20.1916 65.8312 659.312
-19.9048 65.5245 659.113
-19.6187 65.2194 658.928
-22.2416 67.8056 661.841
-21.9531 67.7932 661.675
-21.6649 67.7816 661.517
-22.5443 68.1577 662.468
-22.8367 68.1804 662.733
-22.2534 68.1389 662.24
-23.1324 68.2124 663.089
-21.9639 68.1238 662.049
-23.7137 67.9481 663.455
-23.4305 68.2508 663.507
-21.3765 67.7692 661.351
-24.0152 68.2923 664
-23.7272 68.2842 663.877
-24.0222 68.6099 664.239
-21.0701 67.1046 660.513
-21.0802 67.4339 660.882
-20.778 66.7822 660.165
-20.787 67.1079 660.502
-21.0899 67.7622 661.237
-20.4864 66.4605 659.822
-20.1974 66.1468 659.555
-20.7968 67.4368 660.865
-20.4951 66.7856 660.155
-19.0402 64.5874 658.334
-19.3297 64.9044 658.642
-18.7527 64.2768 658.088
-18.7613 64.603 658.448
-19.0497 64.9163 658.719
-19.338 65.2292 658.983
-19.6237 65.5326 659.15
-18.1872 63.9842 657.982
-17.9012 63.6782 657.782
-19.9095 65.8365 659.322
-15.3707 61.3771 657.666
-15.651 61.662 657.644
-15.3742 61.6887 657.886
-15.0928 61.1023 657.798
-15.0945 61.4068 657.942
-15.6556 61.9775 657.905
-15.0958 61.7101 658.071
-16.4848 61.8968 657.178
-16.7686 62.1958 657.309
-16.4912 62.2179 657.499
-16.773 62.5091 657.547
-16.2141 62.2417 657.708
-17.6158 63.0774 657.539
-17.0549 62.8007 657.598
-17.6189 63.3848 657.712
-17.3374 63.0946 657.675
-17.0583 63.1101 657.793
-16.7764 62.8188 657.745
-17.6239 63.6997 657.961
-18.4742 64.2938 658.218
-17.9086 64.0011 658.113
-20.2039 66.4648 659.819
-19.9147 66.1505 659.547
-19.6281 65.8439 659.352
-19.3425 65.5411 659.192
-19.0572 65.2388 659.036
-21.6757 68.1127 661.896
-21.3885 68.1046 661.772
-21.1012 68.0959 661.643
-22.2664 68.476 662.673
-22.5587 68.4986 662.937
-21.9766 68.4607 662.48
-22.8529 68.5265 663.252
-21.6875 68.4475 662.307
-23.1491 68.5594 663.615
-21.3998 68.4381 662.171
-23.4455 68.5922 663.977
-20.8058 67.7632 661.203
-23.7406 68.6207 664.299
-23.7535 68.9559 664.705
-23.46 68.9327 664.435
-23.1635 68.9001 664.077
-20.5041 67.112 660.497
-20.5141 67.4417 660.869
-20.2125 66.7903 660.156
-20.2211 67.1158 660.49
-20.8154 68.092 661.559
-20.5228 67.7678 661.203
-19.9218 66.4707 659.835
-19.6332 66.1582 659.58
-20.2303 67.4435 660.842
-19.9301 66.7957 660.165
-18.4829 64.6205 658.583
-18.7699 64.9295 658.809
-18.1956 64.3107 658.347
-18.2042 64.6378 658.715
-18.4901 64.943 658.901
-18.7761 65.2476 659.081
-19.0617 65.551 659.247
-19.3471 65.8534 659.402
-17.6309 64.0217 658.281
-17.3411 63.4051 657.879
-15.3761 61.994 658.037
-15.6579 62.2843 658.072
-15.379 62.3035 658.231
-16.495 62.5293 657.716
-16.217 62.5502 657.892
-16.498 62.8377 657.899
-16.7799 63.129 657.946
-17.063 63.4246 658.038
-16.785 63.4453 658.209
-16.5023 63.1514 658.137
-17.3529 64.0424 658.45
-17.6384 64.3461 658.622
-19.6403 66.479 659.872
-19.3525 66.169 659.643
-19.0665 65.8646 659.47
-18.7812 65.5625 659.319
-21.1126 68.4305 662.052
-20.8257 68.4234 661.939
-20.5312 68.0931 661.526
-21.9883 68.795 662.883
-22.2788 68.8119 663.091
-21.6986 68.7801 662.695
-22.5712 68.8346 663.354
-21.4099 68.7682 662.534
-22.8666 68.8653 663.696
-21.1224 68.76 662.41
-20.2393 67.7712 661.191
-23.7572 69.2647 664.853
-23.1789 69.2441 664.565
-23.4743 69.2729 664.886
-23.4856 69.6047 665.254
-22.8809 69.2064 664.158
-22.5848 69.1738 663.8
-22.5975 69.511 664.222
-19.9386 67.1212 660.498
-19.9469 67.4466 660.828
-19.6475 66.8005 660.168
-19.6548 67.1227 660.469
-20.5398 68.4193 661.855
-20.2477 68.0969 661.517
-19.3591 66.4888 659.925
-19.9554 67.7733 661.166
-18.2105 64.9575 659.005
-17.6452 64.6682 658.938
-18.2147 65.2695 659.214
-18.5004 65.5731 659.381
-18.7864 65.878 659.56
-19.0728 66.1835 659.744
-17.069 63.744 658.331
-17.0751 64.0641 658.629
-17.3598 64.3652 658.774
-16.2204 62.8607 658.097
-16.2251 63.1764 658.354
-16.5078 63.47 658.421
-16.7911 63.7659 658.514
-16.7975 64.0878 658.829
-17.365 64.6816 659.031
-19.3651 66.8066 660.184
-18.7928 66.1976 659.841
-18.5065 65.8921 659.657
-18.2192 65.5831 659.437
-20.8357 68.7539 662.307
-20.5484 68.7461 662.186
-20.2556 68.4214 661.83
-19.9639 68.0997 661.5
-21.7103 69.1154 663.104
-22.0005 69.1311 663.3
-21.4204 69.0998 662.909
-22.2922 69.1513 663.539
-21.132 69.0891 662.762
-20.8453 69.0838 662.665
-23.193 69.5844 665.014
-22.8955 69.5489 664.63
-22.9097 69.8907 665.091
-23.2054 69.9203 665.418
-22.9213 70.2245 665.472
-23.2164 70.2522 665.78
-22.3045 69.4876 663.954
-22.0136 69.4705 663.745
-22.3176 69.8268 664.392
-22.6127 69.8562 664.717
-22.0258 69.8074 664.162
-19.6628 67.4478 660.794
-19.6708 67.7727 661.116
-19.3706 67.1229 660.426
-19.3788 67.4489 660.761
-20.2629 68.7439 662.12
-19.9716 68.4238 661.808
-19.0833 66.8146 660.219
-18.7982 66.5141 660.087
-19.679 68.0989 661.447
-19.3869 67.7749 661.092
-17.934 65.2811 659.287
-17.6493 64.9809 659.155
-17.3687 64.9933 659.236
-17.0856 64.6989 659.163
-17.6529 65.2916 659.349
-17.938 65.593 659.493
-18.2256 65.9035 659.727
-18.5126 66.2115 659.934
-16.5136 63.7898 658.717
-16.8027 64.4052 659.096
-16.2309 63.4965 658.653
-15.9538 63.5234 658.888
-16.5201 64.1127 659.042
-16.5245 64.4277 659.283
-16.2363 63.8157 658.941
-17.0887 65.0084 659.346
-16.8066 64.7181 659.314
-19.088 67.1288 660.439
-18.8017 66.8241 660.268
-18.5172 66.5256 660.157
-18.2317 66.2231 660.006
-17.6569 65.604 659.559
-20.5588 69.079 662.574
-20.2728 69.0756 662.496
-19.9787 68.7465 662.1
-19.6873 68.4256 661.78
-19.3943 68.0989 661.402
-21.4319 69.4354 663.318
-21.7233 69.4548 663.549
-21.1418 69.4193 663.119
-20.8545 69.4125 663.009
-20.5685 69.4098 662.938
-22.6261 70.1962 665.159
-22.3305 70.1658 664.825
-22.9331 70.5599 665.865
-22.6384 70.5333 665.569
-22.3432 70.5045 665.252
-23.2253 70.5781 666.083
-23.2333 70.9014 666.358
-22.6519 70.8744 666.013
-21.7352 69.7912 663.963
-21.4436 69.7716 663.73
-22.0367 70.1404 664.539
-21.7448 70.1207 664.307
-21.4531 70.101 664.074
-19.0956 67.4532 660.758
-19.1043 67.782 661.117
-18.8067 67.1396 660.501
-18.8138 67.4629 660.808
-19.9872 69.074 662.435
-19.6958 68.7536 662.124
-18.5202 66.8342 660.323
-18.2358 66.5358 660.213
-19.4023 68.4252 661.732
-19.1108 68.1029 661.396
-18.8219 67.7898 661.149
-17.3719 65.3027 659.417
-17.3763 65.6173 659.649
-17.6621 65.9212 659.815
-17.9502 66.2332 660.062
-16.2415 64.1339 659.216
-16.5278 64.7385 659.478
-15.959 63.8423 659.172
-15.3946 63.2615 659.11
-15.6812 63.8679 659.392
-16.2454 64.4475 659.441
-16.2481 64.7564 659.616
-16.5305 65.0473 659.652
-18.2392 66.8463 660.398
-17.9548 66.5483 660.293
-17.668 66.2409 660.095
-17.3814 65.9342 659.901
-17.0968 65.6349 659.781
-20.2826 69.4077 662.872
-19.9968 69.4057 662.809
-19.7035 69.0786 662.435
-19.4136 68.7631 662.17
-19.1182 68.4278 661.712
-18.8277 68.109 661.411
-21.1528 69.7538 663.516
-20.864 69.7426 663.364
-20.5776 69.7391 663.285
-20.292 69.7381 663.23
-22.0487 70.4774 664.95
-21.755 70.4524 664.669
-22.9489 70.9075 666.37
-22.3561 70.8445 665.686
-22.0612 70.8166 665.379
-21.768 70.7934 665.115
-22.666 71.2179 666.477
-22.962 71.2474 666.799
-22.3704 71.189 666.16
-22.0752 71.1608 665.851
-21.163 70.0862 663.889
-20.8737 70.0736 663.724
-21.4629 70.4317 664.427
-21.173 70.4181 664.254
-20.8847 70.4092 664.124
-18.5328 67.4754 660.886
-18.2449 67.165 660.662
-18.5377 67.7916 661.121
-18.2516 67.4881 660.966
-19.7117 69.4061 662.767
-19.4214 69.0896 662.494
-18.8366 68.4396 661.781
-17.1014 65.9508 660.023
-17.3865 66.2517 660.158
-15.966 64.4669 659.596
-16.2512 65.0671 659.809
-15.9683 64.7748 659.76
-15.6844 64.1796 659.598
-15.3996 63.5804 659.393
-15.118 63.2932 659.396
-15.1222 63.6093 659.649
-15.4035 63.8949 659.628
-15.4061 64.2047 659.812
-15.6869 64.4883 659.771
-16.534 65.3594 659.858
-16.255 65.381 660.031
-17.9641 67.179 660.755
-17.6787 66.8777 660.619
-17.3924 66.5723 660.443
-20.0065 69.7378 663.182
-19.7207 69.7364 663.124
-19.4274 69.4094 662.753
-19.1381 69.0963 662.514
-20.586 70.0661 663.607
-20.2993 70.062 663.523
-20.0141 70.0631 663.488
-21.4751 70.7707 664.856
-21.1838 70.753 664.644
-22.3855 71.5366 666.659
-21.7815 71.1363 665.576
-21.4886 71.1143 665.324
-21.1959 71.0926 665.076
-22.6815 71.5662 666.981
-22.0902 71.5083 666.35
-22.3972 71.8736 667.056
-22.6947 71.9076 667.417
-21.7956 71.4821 666.059
-21.5015 71.4567 665.777
-20.5962 70.3999 663.991
-20.8954 70.7445 664.518
-20.6065 70.7342 664.377
-20.308 70.3911 663.863
-17.9707 67.502 661.057
-17.6838 67.1953 660.871
-17.9763 67.8216 661.324
-17.6896 67.5159 661.148
-19.4348 69.7347 663.061
-19.1451 69.4201 662.81
-18.8521 69.0933 662.44
-17.1103 66.5819 660.493
-16.8286 66.5933 660.562
-15.6894 64.7973 659.946
-15.9757 65.4022 660.201
-15.6928 65.1103 660.159
-15.4082 64.5123 659.973
-14.5626 63.3505 659.907
-14.5657 63.6634 660.123
-15.1275 64.2295 660.023
-15.1301 64.5397 660.209
-15.4114 64.8244 660.177
-16.2592 65.6964 660.267
-15.9805 65.7208 660.468
-15.6968 65.4259 660.396
-17.4044 67.2155 661.024
-17.3985 66.8943 660.738
-17.1172 66.9075 660.824
-19.7292 70.0655 663.465
-19.4431 70.0638 663.403
-19.1515 69.7426 663.092
-18.8627 69.431 662.869
-20.0221 70.3902 663.809
-19.7371 70.3927 663.786
-20.9065 71.0812 664.923
-20.6179 71.0724 664.794
-22.1037 71.8519 666.808
-21.8092 71.8264 666.525
-21.2075 71.4309 665.49
-20.9165 71.4146 665.293
-20.6275 71.4049 665.156
-22.4101 72.2151 667.49
-22.1182 72.1991 667.296
-21.5156 71.803 666.262
-21.8243 72.176 667.037
-22.133 72.5474 667.79
-21.2209 71.7755 665.961
-20.9269 71.7497 665.675
-20.3177 70.7238 664.232
-20.3286 71.0612 664.644
-20.0306 70.7192 664.144
-17.6958 67.8382 661.441
-17.409 67.5322 661.263
-17.1238 67.2319 661.141
-17.413 67.8463 661.475
-19.1583 70.0665 663.384
-18.8701 69.7574 663.187
-16.8354 66.919 660.893
-16.5556 66.9388 661.044
-15.4145 65.1368 660.384
-15.4183 65.4519 660.615
-15.1335 64.8535 660.429
-14.2834 63.3747 660.115
-14.2869 63.6896 660.351
-14.0042 63.3997 660.332
-14.0079 63.7164 660.585
-14.8485 64.2537 660.229
-14.5698 64.2803 660.458
-14.8516 64.5667 660.441
-14.8554 64.8827 660.683
-15.4223 65.7684 660.858
-15.1391 65.4761 660.814
-17.1279 67.547 661.364
-16.8431 67.2483 661.258
-19.4515 70.3931 663.744
-19.1666 70.3962 663.728
