14.2745 -12.7504 624.946
13.7335 -13.3122 625.402
13.4636 -13.5941 625.667
14.5455 -12.4704 624.751
14.8155 -12.1897 624.516
15.0674 -12.175 623.61
15.0484 -12.4393 622.891
15.3195 -12.161 622.738
16.0981 -13.5337 621.461
15.8284 -13.2541 621.517
15.5608 -12.9762 621.657
15.3056 -12.4292 622.238
14.2078 -18.008 623.369
13.9347 -18.0047 623.377
14.4812 -18.0118 623.376
13.6616 -18.0011 623.376
14.7544 -18.0152 623.374
13.3891 -17.9985 623.405
15.0283 -18.0194 623.397
15.3025 -18.0239 623.43
13.117 -17.9961 623.447
15.5764 -18.0279 623.445
12.8452 -17.9944 623.508
15.8503 -18.0319 623.461
12.5735 -17.9926 623.571
16.1242 -18.0357 623.47
16.3967 -17.7576 623.366
16.6679 -17.4781 623.211
16.9376 -17.1974 623.007
17.2074 -16.917 622.812
12.3015 -17.9905 623.619
16.639 -14.3734 621.466
16.9137 -14.6574 621.593
17.1894 -14.9423 621.748
17.1916 -15.2236 621.886
17.1966 -15.7873 622.185
17.4669 -15.5083 622.019
17.4648 -15.2269 621.888
17.4697 -15.7905 622.179
17.4729 -16.0731 622.349
17.4785 -16.638 622.665
16.3677 -13.8133 621.402
16.638 -14.0934 621.37
16.9113 -14.3761 621.445
17.1867 -14.6607 621.595
12.0472 -16.6101 624.169
12.0552 -16.3403 624.501
12.0418 -16.8834 623.974
12.0381 -17.1588 623.863
12.0349 -17.435 623.783
11.7859 -16.6233 624.792
12.3641 -15.2647 625.974
12.6435 -14.7116 626.08
11.7997 -16.3616 625.45
12.0324 -17.712 623.736
16.3988 -18.0404 623.509
16.6713 -17.7621 623.4
16.9411 -17.4812 623.197
17.2106 -17.2003 622.987
17.4803 -16.9198 622.787
17.7496 -16.3592 622.521
17.7468 -16.0769 622.367
17.7523 -16.6417 622.674
13.1941 -13.8768 625.958
12.9243 -14.1596 626.245
12.6531 -14.4413 626.476
12.3722 -14.9931 626.299
12.0938 -15.5475 626.246
12.0313 -17.991 623.76
16.3682 -13.5346 621.359
16.0984 -13.2549 621.413
16.638 -13.8143 621.31
15.83 -12.9763 621.516
15.5638 -12.6996 621.714
15.5686 -12.4243 621.839
15.0844 -11.9085 624.245
15.34 -11.8974 623.505
13.7449 -13.0422 625.845
13.4741 -13.3235 626.079
13.2059 -13.6079 626.443
15.3566 -11.6301 624.113
15.6116 -11.619 623.362
15.5907 -11.8829 622.594
15.5766 -12.1513 622.093
15.8621 -11.6052 622.461
16.3679 -13.2553 621.286
16.0995 -12.9767 621.391
15.8323 -12.6991 621.546
14.21 -18.2914 623.537
14.4831 -18.2947 623.53
13.9371 -18.2884 623.556
13.6636 -18.2843 623.54
14.7564 -18.2982 623.528
13.3904 -18.2807 623.54
15.0304 -18.3025 623.551
13.1176 -18.2777 623.556
15.3051 -18.3075 623.602
15.5792 -18.3116 623.622
12.8454 -18.2753 623.597
15.853 -18.3154 623.628
12.5735 -18.2733 623.651
16.1268 -18.3191 623.634
12.3017 -18.2716 623.713
16.4015 -18.3238 623.672
16.674 -18.0454 623.562
16.9454 -17.766 623.414
17.2137 -17.4836 623.156
17.4828 -17.2022 622.932
17.7541 -16.9233 622.792
12.0306 -18.2709 623.81
16.9088 -14.0949 621.295
17.1837 -14.3789 621.427
17.4594 -14.6635 621.579
17.4621 -14.9452 621.735
17.7434 -15.7941 622.192
17.741 -15.5124 622.051
17.7379 -15.2301 621.883
17.7347 -14.948 621.717
16.6384 -13.5356 621.265
16.9087 -13.8157 621.233
17.1804 -14.097 621.249
17.4556 -14.3812 621.388
11.7767 -16.8913 624.392
11.7705 -17.1632 624.149
11.7669 -17.4388 624.046
11.764 -17.7153 623.975
11.5166 -16.9071 625.103
11.5074 -17.1745 624.687
12.1013 -15.2754 626.55
12.3794 -14.7202 626.584
11.2501 -17.1957 625.586
11.7627 -17.9942 623.992
16.6773 -18.3296 623.746
16.9489 -18.0502 623.603
17.2189 -17.7692 623.402
17.4867 -17.4863 623.13
17.7558 -17.205 622.908
18.0279 -16.9269 622.798
18.0236 -16.363 622.537
18.0205 -16.0804 622.373
18.0258 -16.6449 622.667
18.0171 -15.7976 622.198
18.2938 -16.0836 622.367
11.7615 -18.2733 624.016
16.6382 -13.2564 621.194
16.3689 -12.9771 621.265
16.1017 -12.6995 621.415
16.9088 -13.5368 621.176
17.1794 -13.8171 621.152
15.8355 -12.4226 621.606
15.8393 -12.1465 621.693
15.6282 -11.3514 623.961
15.8802 -11.3387 623.107
15.8966 -11.0706 623.689
15.8482 -11.8741 621.979
16.1309 -11.3256 622.227
16.1194 -11.5966 621.848
16.1483 -11.0583 622.837
16.4032 -11.0488 622.138
16.6384 -12.9776 621.142
16.3709 -12.6997 621.278
16.1042 -12.4224 621.447
14.2121 -18.5747 623.702
13.9386 -18.5709 623.692
14.4856 -18.5784 623.706
14.7593 -18.5824 623.718
13.6652 -18.5671 623.687
13.3919 -18.5635 623.685
15.034 -18.5874 623.766
13.1189 -18.5601 623.693
15.3083 -18.592 623.798
12.8457 -18.5565 623.691
15.5824 -18.596 623.814
15.8557 -18.5992 623.799
12.5734 -18.5539 623.727
16.1288 -18.602 623.775
12.3015 -18.552 623.783
16.4043 -18.6076 623.84
12.0306 -18.5517 623.893
16.9524 -18.3345 623.792
17.2237 -18.0547 623.638
17.4919 -17.7719 623.374
17.7614 -17.4907 623.163
18.0294 -17.2084 622.906
11.7607 -18.5529 624.054
17.4521 -14.0992 621.207
17.7317 -14.6661 621.552
17.7279 -14.3837 621.362
18.0141 -15.5154 622.04
18.2903 -15.8007 622.191
18.0102 -15.2325 621.85
18.287 -15.5183 622.024
18.0074 -14.9508 621.697
18.004 -14.6686 621.523
16.9082 -13.2574 621.095
17.1787 -13.5376 621.072
17.4505 -13.8188 621.09
17.7249 -14.1022 621.201
18.0008 -14.3868 621.357
11.5015 -17.4468 624.455
11.4981 -17.7227 624.361
11.4959 -18.0003 624.326
11.2404 -17.4621 625.126
11.2358 -17.7362 624.959
10.9668 -18.0212 625.297
11.2311 -18.0102 624.791
11.4939 -18.2783 624.307
17.4972 -18.0577 623.62
17.7696 -17.7792 623.507
18.0379 -17.4968 623.254
18.3032 -17.2119 622.907
18.3024 -16.9311 622.824
18.3003 -16.6491 622.697
18.2973 -16.3665 622.538
18.5713 -16.3702 622.552
18.5676 -16.087 622.372
18.5639 -15.8041 622.194
11.4929 -18.5579 624.341
16.9087 -12.9788 621.053
16.6401 -12.7 621.146
16.3728 -12.4223 621.291
17.1787 -13.2586 621.01
17.4495 -13.5391 620.998
17.7223 -13.8211 621.052
16.1069 -12.1455 621.489
16.1115 -11.8699 621.606
16.1654 -10.7903 623.435
16.4198 -10.7805 622.706
16.437 -10.5121 623.295
16.3907 -11.3193 621.722
16.6655 -11.0444 621.731
16.6776 -10.7733 622.124
16.3827 -11.5927 621.48
16.3788 -11.8688 621.395
16.693 -10.5038 622.637
16.9394 -10.7689 621.706
16.9505 -10.4968 622.055
16.9092 -12.7003 621.013
16.6419 -12.4225 621.153
16.3753 -12.1452 621.323
14.2135 -18.8572 623.831
13.94 -18.8535 623.828
14.4871 -18.8611 623.842
13.6668 -18.85 623.833
14.7617 -18.8661 623.886
15.0367 -18.8715 623.946
13.3936 -18.8465 623.837
13.1203 -18.8429 623.838
15.3119 -18.877 624.008
12.8469 -18.8389 623.825
15.5863 -18.8815 624.036
12.574 -18.8356 623.835
15.859 -18.8838 623.993
16.1293 -18.8832 623.855
12.302 -18.8336 623.889
12.0311 -18.8334 624.002
11.7615 -18.8354 624.187
18.5833 -17.2212 623.117
11.4938 -18.8405 624.477
17.9979 -14.1054 621.201
18.2735 -14.3897 621.343
18.2835 -15.2358 621.848
18.56 -15.5211 622.007
18.2803 -14.9537 621.684
18.5566 -15.2389 621.841
18.2766 -14.6714 621.504
18.5492 -14.6741 621.485
17.1791 -12.9801 620.967
17.4498 -13.2604 620.952
17.7215 -13.5415 620.967
17.9948 -13.8239 621.038
18.2708 -14.1084 621.197
11.2277 -18.2859 624.69
10.9644 -18.2989 625.253
10.968 -18.5866 625.548
11.2274 -18.5669 624.765
11.2306 -18.8536 625.03
18.578 -16.9361 622.884
18.5747 -16.6531 622.719
18.8451 -16.3736 622.553
18.8419 -16.0909 622.392
18.849 -16.6569 622.735
18.8382 -15.808 622.217
18.8337 -15.5246 622.013
11.7628 -19.1186 624.34
17.1792 -12.7013 620.913
16.9113 -12.4231 621.031
16.6443 -12.1454 621.181
17.4497 -12.9815 620.891
17.7217 -13.2628 620.919
17.9936 -13.5441 620.941
18.2678 -13.8271 621.041
16.7098 -10.2348 623.203
16.9659 -10.227 622.56
16.9831 -9.95775 623.129
16.6556 -11.3167 621.423
16.6493 -11.5913 621.25
16.9301 -11.0418 621.423
16.9228 -11.3158 621.216
17.2042 -10.7665 621.407
17.2123 -10.4926 621.639
16.6465 -11.8682 621.205
17.2409 -9.95134 622.555
17.1968 -11.0407 621.199
17.2241 -10.2207 622.01
17.4864 -10.2171 621.621
17.181 -12.4238 620.918
16.9133 -12.1457 621.046
14.2162 -19.1416 624.021
13.9425 -19.1377 624.013
14.4896 -19.1451 624.016
13.6695 -19.1346 624.031
14.7635 -19.1492 624.031
13.3962 -19.1311 624.036
15.0386 -19.1548 624.094
15.3143 -19.1608 624.172
13.1223 -19.1266 624.007
12.8483 -19.1219 623.973
12.5746 -19.1174 623.946
12.3026 -19.1155 624.002
12.0318 -19.1156 624.123
11.497 -19.1271 624.737
11.765 -19.4035 624.543
18.5463 -14.3926 621.33
18.5428 -14.1107 621.159
18.5529 -14.9564 621.662
18.83 -15.242 621.838
18.8252 -14.9588 621.629
18.8219 -14.6769 621.465
18.8183 -14.3949 621.292
17.4505 -12.7033 620.861
17.7215 -12.9838 620.854
17.9928 -13.2646 620.857
18.265 -13.546 620.89
18.5398 -13.8294 621.004
11.2351 -19.1429 625.372
11.5007 -19.4148 625.025
19.1233 -16.6607 622.75
19.1194 -16.3774 622.569
19.1164 -16.095 622.419
19.1125 -15.8119 622.238
19.39 -16.0982 622.414
19.1077 -15.5283 622.029
19.1033 -15.2452 621.833
12.0332 -19.3989 624.278
17.4514 -12.4251 620.834
17.7219 -12.7053 620.814
17.1821 -12.1458 620.899
16.915 -11.868 621.046
17.9928 -12.9857 620.801
18.2631 -13.2658 620.77
18.5358 -13.5476 620.817
17.5203 -9.6781 622.709
17.5013 -9.94669 622.092
17.8008 -9.40516 622.896
16.9182 -11.5915 621.104
17.1905 -11.3153 621.028
17.1868 -11.5916 620.955
17.4701 -10.765 621.153
17.4766 -10.4901 621.328
17.4641 -11.04 620.999
17.7511 -10.215 621.323
17.7801 -9.67334 622.228
17.4592 -11.3156 620.883
17.7631 -9.943 621.689
17.7424 -10.4887 621.077
18.0262 -9.94016 621.34
17.4522 -12.147 620.807
17.1839 -11.8684 620.909
14.2183 -19.4255 624.188
14.4916 -19.4287 624.172
13.9455 -19.4227 624.218
13.6719 -19.419 624.215
14.7657 -19.4329 624.191
13.3982 -19.415 624.205
13.124 -19.4101 624.164
12.8497 -19.405 624.119
12.5763 -19.4011 624.112
12.3038 -19.3984 624.143
11.768 -19.6898 624.784
12.0353 -19.6836 624.472
12.3063 -19.6836 624.353
18.815 -14.1132 621.129
18.8117 -13.8317 620.966
19.0987 -14.9621 621.63
19.0945 -14.6796 621.443
19.3712 -14.9646 621.6
19.0908 -14.3975 621.27
19.0874 -14.1158 621.106
17.7219 -12.4265 620.754
17.9931 -12.7072 620.757
18.263 -12.9869 620.711
18.5334 -13.267 620.683
18.8073 -13.5496 620.77
11.7696 -19.9741 624.958
19.3909 -16.3788 622.495
19.3865 -15.8155 622.247
19.3815 -15.5318 622.036
19.6595 -15.8182 622.224
19.6596 -16.0981 622.28
19.376 -15.2478 621.807
19.655 -15.5349 622.029
12.5785 -19.6856 624.299
17.7231 -12.1486 620.74
17.4538 -11.8693 620.804
17.9927 -12.4281 620.687
18.263 -12.7081 620.656
18.5327 -12.9877 620.604
18.8047 -13.2689 620.63
19.0799 -13.5524 620.755
18.0611 -9.40082 622.43
18.0801 -9.13124 623.03
18.0416 -9.66967 621.816
18.34 -9.12697 622.556
18.3555 -8.85517 623.026
17.4559 -11.592 620.821
17.7359 -10.7635 620.907
17.731 -11.0391 620.792
17.7276 -11.3156 620.729
18.0156 -10.213 621.031
18.0085 -10.4875 620.841
18.3197 -9.39588 621.923
17.7252 -11.5927 620.701
18.302 -9.66558 621.377
18.0025 -10.7626 620.69
18.2884 -9.93701 620.971
18.2802 -10.2111 620.747
17.7244 -11.8708 620.729
14.2205 -19.7095 624.354
14.4933 -19.7121 624.319
13.9478 -19.7071 624.397
13.6746 -19.7039 624.413
13.4002 -19.6989 624.371
13.1259 -19.694 624.332
12.8519 -19.6893 624.302
12.0375 -19.9686 624.67
12.0391 -20.2527 624.835
12.3081 -19.9678 624.529
12.5805 -19.97 624.481
19.0837 -13.8341 620.931
19.3594 -14.118 621.064
19.3666 -14.6818 621.402
19.363 -14.3998 621.232
19.6436 -14.967 621.565
19.6488 -15.2505 621.784
19.6381 -14.6836 621.342
19.355 -13.8359 620.874
17.9939 -12.1502 620.671
18.2638 -12.4299 620.628
18.5326 -12.7089 620.546
18.8025 -12.9886 620.503
19.0766 -13.2712 620.594
19.3517 -13.5546 620.714
11.7713 -20.2586 625.132
11.7712 -20.5402 625.214
12.0397 -20.5354 624.952
12.31 -20.2523 624.706
19.9282 -15.8175 622.066
19.9272 -15.537 621.981
19.9218 -15.2533 621.764
12.8538 -19.9736 624.475
17.9952 -11.8724 620.66
18.2642 -12.1516 620.588
18.5333 -12.4307 620.517
18.8019 -12.7095 620.429
19.0735 -12.9904 620.441
19.3473 -13.2728 620.522
18.5981 -9.12199 622.034
18.6155 -8.85124 622.563
18.629 -8.57819 622.958
18.8905 -8.57516 622.548
18.5784 -9.39111 621.429
18.9058 -8.30268 623.001
17.9987 -11.0389 620.616
17.9968 -11.3163 620.605
17.9956 -11.5941 620.621
18.2751 -10.4867 620.627
18.2705 -10.7626 620.527
18.8558 -9.11701 621.512
18.8736 -8.84655 622.046
18.5629 -9.66191 620.966
18.8404 -9.38821 621.058
18.2679 -11.0395 620.492
18.5529 -9.93518 620.684
18.5465 -10.2102 620.526
18.5421 -10.4862 620.431
13.9504 -19.9919 624.583
13.6762 -19.9875 624.562
13.4021 -19.983 624.536
13.1277 -19.9779 624.493
12.3116 -20.5365 624.87
12.5826 -20.2547 624.664
12.856 -20.2582 624.658
19.6302 -14.1195 620.988
19.6343 -14.4016 621.171
19.6263 -13.8377 620.813
19.9163 -14.9697 621.541
19.9101 -14.6858 621.298
19.9057 -14.4033 621.108
20.183 -14.6886 621.281
19.6225 -13.5561 620.642
18.2649 -11.8733 620.554
18.5335 -12.1522 620.468
18.8019 -12.4309 620.378
19.0716 -12.7104 620.326
19.3442 -12.9919 620.37
19.6179 -13.2742 620.447
12.0403 -20.8181 625.066
12.3129 -20.8202 625.015
12.5849 -20.5398 624.857
20.1957 -15.5363 621.822
20.194 -15.2554 621.717
20.1883 -14.9718 621.495
13.1301 -20.2629 624.687
18.2659 -11.5954 620.533
18.5343 -11.8741 620.443
18.8026 -12.1528 620.346
19.0704 -12.4311 620.236
19.3414 -12.7114 620.229
19.6145 -12.9932 620.287
19.149 -8.57095 622.051
19.1315 -8.84193 621.535
19.1669 -8.29968 622.582
19.4426 -8.02377 622.588
19.1156 -9.11326 621.074
19.722 -7.74922 622.708
19.4239 -8.29507 622.041
18.2666 -11.3173 620.503
18.5392 -10.763 620.388
18.5378 -11.0407 620.398
19.3916 -8.83851 621.109
19.407 -8.5667 621.553
18.8278 -9.66045 620.698
18.8193 -9.93449 620.47
19.104 -9.38622 620.748
19.0948 -9.66013 620.502
19.3783 -9.11099 620.737
18.5366 -11.3184 620.409
18.8144 -10.2103 620.36
18.8105 -10.4866 620.287
18.8088 -10.764 620.282
13.6783 -20.2717 624.727
13.4041 -20.2672 624.703
12.587 -20.8249 625.041
12.859 -20.5445 624.885
13.133 -20.5488 624.901
19.9008 -14.1207 620.905
19.8975 -13.8394 620.751
19.8932 -13.5576 620.567
20.177 -14.405 621.045
20.4548 -14.6906 621.228
20.1726 -14.1229 620.86
20.4489 -14.4072 621.001
20.4598 -14.9735 621.43
19.8886 -13.2757 620.373
18.5359 -11.5965 620.44
18.804 -11.8751 620.338
19.0717 -12.1533 620.223
19.3395 -12.4316 620.116
19.6111 -12.7124 620.128
19.8842 -12.9942 620.186
20.1595 -13.2774 620.307
12.8613 -20.8298 625.075
20.4622 -15.2546 621.551
18.806 -11.5978 620.352
19.0734 -11.8759 620.227
19.34 -12.1535 620.08
19.6087 -12.4323 620.001
19.8813 -12.7137 620.045
19.6838 -8.29188 621.607
19.7014 -8.02017 622.109
19.6682 -8.56394 621.163
19.9829 -7.74666 622.298
20.0068 -7.47646 622.992
19.6543 -8.83642 620.776
19.3691 -9.38507 620.493
20.2672 -7.47392 622.57
20.2449 -7.74468 621.935
20.5289 -7.47191 622.193
19.9626 -8.01769 621.717
18.8082 -11.0421 620.317
18.8072 -11.32 620.339
19.9317 -8.56235 620.857
19.9462 -8.28983 621.259
19.0877 -9.9349 620.323
19.0829 -10.2108 620.221
19.3563 -9.93544 620.186
19.3624 -9.6602 620.331
19.6431 -9.1098 620.474
19.6356 -9.38465 620.288
19.9192 -8.83538 620.517
19.0796 -10.4874 620.167
19.0784 -10.7651 620.18
19.0779 -11.0432 620.216
20.1684 -13.841 620.682
20.4442 -14.1248 620.807
20.1639 -13.5591 620.493
20.7204 -14.409 620.942
20.7253 -14.6916 621.137
20.7281 -14.9729 621.271
20.4388 -13.8422 620.594
20.7146 -14.126 620.719
20.1544 -12.9954 620.101
19.0756 -11.5988 620.247
19.3414 -11.8759 620.073
19.6075 -12.1531 619.912
19.8785 -12.4334 619.906
20.1512 -12.7148 619.952
20.4242 -12.9964 620.004
20.4289 -13.2781 620.195
20.434 -13.5602 620.401
19.0773 -11.3213 620.249
19.3444 -11.5993 620.118
19.6087 -11.8755 619.897
19.8764 -12.1538 619.792
20.1479 -12.4343 619.799
20.2269 -8.01655 621.43
20.2108 -8.2888 620.987
20.2972 -7.2053 623.441
20.5551 -7.20201 622.94
20.8161 -7.1999 622.542
20.0391 -7.20867 623.948
20.1971 -8.56165 620.616
19.9092 -9.1093 620.258
19.6294 -9.66 620.143
20.7911 -7.47022 621.843
20.5088 -7.74346 621.633
20.7715 -7.74189 621.303
21.0775 -7.19803 622.165
21.0528 -7.46842 621.483
20.492 -8.01581 621.174
20.4769 -8.28845 620.766
20.1851 -8.83486 620.295
19.3513 -10.2112 620.079
19.3483 -10.4879 620.035
19.6241 -9.93564 620.026
19.62 -10.2119 619.95
19.9022 -9.38436 620.09
19.8966 -9.65993 619.965
20.1759 -9.10911 620.063
20.4634 -8.56137 620.407
19.3478 -10.766 620.069
19.3468 -11.0438 620.091
19.3463 -11.3219 620.127
20.7092 -13.8435 620.511
20.9896 -14.4093 620.817
20.9923 -14.6903 620.944
20.9842 -14.1267 620.61
20.7035 -13.5609 620.29
20.9785 -13.844 620.392
20.4201 -12.7153 619.83
19.612 -11.5991 619.951
19.8778 -11.8762 619.783
20.146 -12.1548 619.694
20.4164 -12.4346 619.667
20.6934 -12.9971 619.889
20.6988 -13.2791 620.101
20.6884 -12.7155 619.692
19.6142 -11.3219 619.969
19.8798 -11.599 619.795
20.1471 -11.8771 619.678
20.4143 -12.155 619.554
20.7544 -8.01409 620.841
20.5871 -6.93337 623.86
20.8446 -6.93012 623.346
21.1051 -6.92797 622.93
21.1336 -6.65754 623.725
21.3647 -6.92566 622.5
21.3383 -7.19604 621.777
20.741 -8.28732 620.488
20.4515 -8.83465 620.094
20.1689 -9.38414 619.897
19.8916 -9.93574 619.861
21.3149 -7.46686 621.144
21.033 -7.74 620.947
21.6255 -6.9238 622.112
21.6012 -7.19487 621.461
21.5799 -7.46635 620.893
21.0169 -8.01249 620.518
20.7291 -8.5609 620.182
20.4432 -9.10924 619.891
19.6174 -10.4888 619.919
19.6171 -10.7669 619.959
19.889 -10.2126 619.828
19.8876 -10.4902 619.838
20.1642 -9.66015 619.804
20.1598 -9.93619 619.717
20.4367 -9.38451 619.744
20.7185 -8.83471 619.913
21.0045 -8.28607 620.2
19.6157 -11.0444 619.966
20.9727 -13.5614 620.173
21.2519 -14.4049 620.49
21.2501 -14.1249 620.393
21.2452 -13.8428 620.201
20.9679 -13.2796 619.982
21.2399 -13.5607 619.999
20.684 -12.4345 619.512
19.8827 -11.3224 619.834
20.1492 -11.6 619.69
20.4146 -11.8769 619.516
20.6805 -12.1542 619.359
20.9614 -12.9971 619.743
20.9563 -12.7155 619.543
20.9507 -12.4338 619.331
19.8848 -11.0453 619.852
20.1525 -11.3235 619.741
20.418 -11.6007 619.571
20.6812 -11.8764 619.332
21.2961 -7.73873 620.642
21.3948 -6.65576 623.33
21.4301 -6.38665 624.308
21.6537 -6.65336 622.876
21.6877 -6.38394 623.807
21.9435 -6.38081 623.265
21.9127 -6.65111 622.436
21.8861 -6.922 621.728
21.8634 -7.19351 621.128
20.9949 -8.56053 619.966
21.2818 -8.01188 620.272
20.7105 -9.10945 619.723
20.4322 -9.66056 619.655
20.1568 -10.2129 619.675
21.8446 -7.46582 620.64
21.5623 -7.7387 620.435
22.1728 -6.64929 622.038
22.146 -6.92005 621.332
22.1248 -7.19198 620.781
21.8276 -7.73837 620.205
21.2701 -8.28571 619.979
20.986 -8.83504 619.75
20.7051 -9.38515 619.608
19.8862 -10.7677 619.842
20.1564 -10.4909 619.713
20.1552 -10.7685 619.727
20.4285 -9.93696 619.594
20.425 -10.2134 619.536
20.7009 -9.66137 619.533
20.9789 -9.11017 619.59
21.2537 -8.8355 619.597
21.2612 -8.56038 619.766
21.5472 -8.01153 620.047
21.2348 -13.2789 619.802
21.5089 -14.1185 619.972
21.5079 -13.8391 619.896
21.5039 -13.558 619.734
21.2285 -12.9965 619.57
21.4991 -13.2765 619.548
20.9472 -12.1536 619.178
20.1541 -11.0462 619.741
20.4222 -11.3247 619.648
20.6853 -11.6005 619.404
20.9471 -11.8754 619.129
21.2232 -12.7149 619.368
21.2172 -12.4331 619.146
21.2135 -12.1528 618.99
20.4237 -11.0473 619.645
20.6903 -11.325 619.506
20.9509 -11.5994 619.193
22.2027 -6.37877 622.83
22.2301 -6.10686 623.552
22.462 -6.37685 622.407
22.4876 -6.10455 623.071
22.7726 -5.82999 623.306
22.4324 -6.64738 621.631
22.4088 -6.91907 621.023
21.5361 -8.28555 619.773
20.9732 -9.38572 619.467
20.697 -9.93764 619.465
20.4239 -10.4909 619.551
22.1061 -7.46427 620.301
22.3871 -7.19084 620.468
21.8128 -8.01129 619.829
22.7216 -6.37512 622.002
22.6956 -6.64665 621.335
22.6716 -6.91817 620.721
22.6505 -7.19008 620.188
22.0903 -7.73715 619.904
22.3689 -7.46326 620.009
21.5276 -8.56036 619.575
21.2479 -9.11114 619.475
20.9695 -9.66216 619.408
20.4241 -10.7693 619.609
20.6941 -10.2143 619.426
20.6928 -10.4918 619.435
20.9656 -9.9384 619.341
21.2418 -9.38654 619.343
21.5205 -8.83557 619.417
21.5142 -9.11099 619.283
21.8018 -8.28532 619.562
21.4935 -12.9948 619.343
21.7612 -13.8297 619.332
21.7615 -13.5515 619.293
21.4875 -12.7129 619.121
21.7591 -13.2717 619.181
21.2129 -11.8744 618.925
20.693 -11.0482 619.538
20.9573 -11.3247 619.332
21.2162 -11.5983 618.977
21.4817 -12.4314 618.909
21.4778 -12.1511 618.75
21.4779 -11.8732 618.707
20.6932 -10.7701 619.494
20.9608 -11.0485 619.391
21.2219 -11.3232 619.094
22.7485 -6.10321 622.692
23.0372 -5.82976 623.029
23.0091 -6.10188 622.312
22.9807 -6.37332 621.591
23.3002 -5.82918 622.714
23.5856 -5.55458 622.951
22.9555 -6.64499 620.952
22.9336 -6.9171 620.404
21.7932 -8.56007 619.365
22.0776 -8.01082 619.595
21.2366 -9.66226 619.241
20.9629 -10.2152 619.308
22.3547 -7.73663 619.658
22.9156 -7.18994 619.962
22.0679 -8.28529 619.366
23.2677 -6.10011 621.887
23.2368 -6.37077 621.107
23.2137 -6.64294 620.532
23.1966 -6.91638 620.119
22.6337 -7.46292 619.772
23.1808 -7.18985 619.74
22.3426 -8.01048 619.37
22.6206 -7.73668 619.459
21.7857 -8.83508 619.197
21.5085 -9.38657 619.168
21.2331 -9.93864 619.184
20.9618 -10.4927 619.323
20.9611 -10.7704 619.349
21.2299 -10.2151 619.139
21.5033 -9.66223 619.064
21.779 -9.1103 619.055
21.7734 -9.38581 618.94
22.0591 -8.55995 619.166
21.7537 -12.9902 618.98
21.7483 -12.7089 618.781
21.48 -11.5964 618.72
21.2261 -11.0474 619.17
21.4856 -11.3214 618.834
21.7421 -12.4273 618.558
21.7388 -12.1475 618.419
21.7389 -11.8697 618.375
21.7415 -11.5933 618.402
21.2282 -10.7704 619.183
21.4906 -11.046 618.932
23.5596 -5.82774 622.309
23.8458 -5.5535 622.568
23.5231 -6.09759 621.388
24.1231 -5.27697 622.59
24.1054 -5.55234 622.176
23.4969 -6.36941 620.739
23.4782 -6.64276 620.289
23.4627 -6.91664 619.921
22.0508 -8.83459 618.977
22.3327 -8.28483 619.138
21.4992 -9.93831 618.993
21.2292 -10.4928 619.165
22.8994 -7.46295 619.565
22.6081 -8.01035 619.162
23.4465 -7.18997 619.535
22.3243 -8.55958 618.95
23.8173 -5.82597 621.867
24.0766 -5.82467 621.477
23.7844 -6.09665 621.049
23.7609 -6.36915 620.479
23.7437 -6.64288 620.073
23.7275 -6.91655 619.693
22.8855 -7.7364 619.234
23.1654 -7.46312 619.371
23.7115 -7.18992 619.316
22.5971 -8.28427 618.903
22.8722 -8.00974 618.917
22.0442 -9.10977 618.838
21.769 -9.66179 618.861
21.4959 -10.2147 618.943
21.4943 -10.4919 618.943
21.7643 -9.93756 618.774
22.0379 -9.385 618.708
22.0328 -9.66059 618.61
22.3161 -8.83426 618.769
22.0029 -12.7015 618.272
21.7477 -11.3188 618.534
21.493 -10.7692 618.953
21.7525 -11.0434 618.624
21.9994 -12.4216 618.127
21.997 -12.1426 618.015
21.9978 -11.8653 617.992
22.0008 -11.5893 618.031
22.0065 -11.3145 618.144
21.7557 -10.7671 618.667
24.3853 -5.27656 622.269
24.3653 -5.55133 621.801
24.0482 -6.09643 620.784
24.3377 -5.82386 621.138
24.6475 -5.27619 621.953
24.6243 -5.55015 621.407
24.0252 -6.36902 620.232
24.0088 -6.64295 619.852
23.9925 -6.91656 619.473
22.3097 -9.10948 618.637
22.5879 -8.55868 618.696
21.7598 -10.2133 618.691
23.1515 -7.73656 619.044
22.8608 -8.28352 618.654
23.4306 -7.46307 619.158
22.5811 -8.83385 618.556
24.5968 -5.82263 620.756
24.3103 -6.09583 620.479
24.2886 -6.36872 619.968
24.2732 -6.64287 619.617
23.1385 -8.01002 618.74
23.4178 -7.73684 618.863
23.9756 -7.18964 619.078
23.696 -7.46311 618.954
24.2574 -6.91658 619.255
22.8519 -8.55799 618.457
23.1271 -8.28376 618.478
23.4061 -8.01074 618.598
22.3036 -9.38472 618.512
22.0282 -9.93631 618.526
21.7578 -10.4902 618.682
22.0231 -10.2117 618.427
22.2969 -9.65958 618.371
22.2906 -9.93449 618.241
22.5756 -9.10938 618.448
22.2541 -12.6923 617.68
22.2526 -12.969 617.681
22.2547 -12.415 617.651
22.0124 -11.0398 618.264
22.0165 -10.7641 618.333
22.2561 -12.1382 617.643
22.258 -11.8617 617.652
22.2604 -11.5854 617.672
22.2651 -11.3103 617.759
22.2703 -11.0354 617.857
22.0197 -10.4879 618.379
24.9238 -4.99962 621.951
24.9073 -5.27535 621.582
24.8804 -5.5484 620.951
25.1875 -4.99971 621.679
25.163 -5.27369 621.115
24.5717 -6.0951 620.163
24.5526 -6.36859 619.721
24.5373 -6.64272 619.376
22.5682 -9.38405 618.291
22.845 -8.83305 618.315
23.1183 -8.55822 618.285
23.3957 -8.28485 618.366
23.6842 -7.7372 618.689
22.8403 -9.10883 618.23
24.8546 -5.82115 620.346
25.1379 -5.54703 620.536
24.8334 -6.0945 619.86
24.8163 -6.36845 619.473
23.6732 -8.01132 618.445
23.9601 -7.46279 618.719
24.2403 -7.18959 618.86
24.5205 -6.91614 618.995
24.225 -7.4628 618.512
23.948 -7.73675 618.45
24.8014 -6.64263 619.141
23.111 -8.83309 618.133
23.3856 -8.55884 618.141
23.6628 -8.28541 618.215
22.56 -9.65823 618.111
22.285 -10.2096 618.132
22.2811 -10.4854 618.068
22.5525 -9.93252 617.948
22.5461 -10.2072 617.817
22.8325 -9.38329 618.063
22.2492 -13.2446 617.632
22.5072 -12.6845 617.152
22.5109 -12.4092 617.21
22.2394 -13.5164 617.406
22.5026 -12.9592 617.07
22.4982 -13.234 616.994
22.5137 -12.1333 617.241
22.2754 -10.7603 617.956
22.5209 -11.5823 617.35
22.5248 -11.3068 617.41
22.5292 -11.0316 617.487
22.5347 -10.7569 617.593
25.4654 -4.7235 621.718
25.4476 -4.99914 621.324
25.4215 -5.27272 620.729
25.7269 -4.72334 621.401
25.7056 -4.9982 620.924
25.1156 -5.8205 620.026
25.098 -6.09465 619.633
25.0814 -6.3687 619.263
22.8231 -9.65692 617.853
23.1044 -9.10814 618.002
23.377 -8.83322 617.957
23.6525 -8.55935 617.989
23.9396 -8.01167 618.274
23.0961 -9.38234 617.823
25.398 -5.54631 620.195
25.378 -5.82022 619.746
25.6804 -5.27186 620.356
25.6588 -5.54577 619.874
25.3612 -6.0945 619.375
25.3455 -6.36871 619.031
23.9297 -8.28594 618.061
24.2132 -7.7368 618.252
24.5042 -7.18933 618.624
24.7847 -6.91604 618.766
24.4905 -7.463 618.32
25.0646 -6.64235 618.888
24.7694 -7.18949 618.424
24.4797 -7.73729 618.088
24.2047 -8.01165 618.074
23.3694 -9.10782 617.799
23.6424 -8.83312 617.766
23.9185 -8.55953 617.813
22.8148 -9.93083 617.672
22.5408 -10.4823 617.717
22.8088 -10.2056 617.555
22.8039 -10.4808 617.466
23.0875 -9.65625 617.636
22.2282 -13.787 617.141
22.4909 -13.507 616.837
22.7656 -12.6798 616.78
22.7612 -12.9545 616.703
22.2169 -14.0573 616.871
22.483 -13.7795 616.665
22.7569 -13.2293 616.631
22.7512 -13.5031 616.519
22.7819 -11.5795 617.044
23.0381 -12.1286 616.703
22.7869 -11.3047 617.135
22.7923 -11.03 617.239
22.7975 -10.7552 617.336
26.0026 -4.44676 621.386
25.9905 -4.72358 621.136
25.9668 -4.99794 620.609
25.9423 -5.27167 620.063
26.2711 -4.44794 621.24
26.2527 -4.72361 620.844
25.6402 -5.81992 619.463
25.6243 -6.09436 619.119
25.3294 -6.64252 618.677
23.0798 -9.93036 617.472
23.3605 -9.38176 617.607
23.6338 -9.10734 617.586
23.9072 -8.83288 617.564
24.1958 -8.28622 617.889
23.3519 -9.65564 617.423
25.9198 -5.54532 619.563
26.2281 -4.99774 620.301
26.2029 -5.27125 619.743
25.9026 -5.81972 619.191
25.6092 -6.36869 618.794
25.8878 -6.09436 618.877
25.5947 -6.64288 618.484
24.1843 -8.55972 617.638
24.4711 -8.01209 617.911
24.7564 -7.46333 618.139
25.0488 -6.91595 618.538
25.0342 -7.18959 618.219
24.7454 -7.73756 617.907
25.3151 -6.91652 618.369
25.0225 -7.46379 617.97
24.7367 -8.01232 617.731
24.4611 -8.28627 617.7
23.6259 -9.38162 617.421
23.8985 -9.10698 617.38
24.1726 -8.83289 617.38
23.0733 -10.2049 617.343
23.0687 -10.4802 617.262
23.0633 -10.755 617.163
23.3447 -9.92992 617.274
22.4761 -14.0524 616.519
22.207 -14.3282 616.642
22.7455 -13.7769 616.41
23.029 -12.678 616.546
23.0337 -12.4035 616.63
23.0248 -12.9528 616.477
23.0222 -13.2285 616.452
22.4697 -14.3255 616.389
21.9409 -14.6061 616.846
22.2 -14.6009 616.49
23.286 -13.504 616.279
23.0468 -11.5787 616.849
23.0518 -11.304 616.941
23.0427 -11.8538 616.783
23.0572 -11.0294 617.042
23.3129 -11.5786 616.69
23.3032 -12.128 616.52
23.3085 -11.8536 616.617
23.2987 -12.4027 616.442
26.5421 -4.17062 621.115
26.5342 -4.44823 620.968
26.5139 -4.72349 620.532
26.4886 -4.99742 619.979
26.4632 -5.27082 619.422
26.8089 -4.17161 620.935
26.795 -4.44816 620.648
26.1816 -5.54509 619.277
26.1664 -5.81987 618.957
25.8739 -6.36892 618.583
25.5816 -6.91713 618.204
23.3389 -10.2047 617.165
23.6184 -9.6559 617.266
23.8922 -9.38186 617.26
24.1636 -9.10686 617.192
24.4487 -8.55942 617.428
23.6114 -9.93027 617.125
26.7731 -4.72306 620.18
26.748 -4.99693 619.636
26.7249 -5.27071 619.138
26.4431 -5.54484 618.989
26.1522 -6.09461 618.661
25.8605 -6.64336 618.302
26.1388 -6.36924 618.38
26.4282 -5.81963 618.68
25.8471 -6.91754 618.021
24.4375 -8.83276 617.186
24.7259 -8.28618 617.5
25.0114 -7.73795 617.735
25.3013 -7.19034 618.07
25.2892 -7.46443 617.815
25.5688 -7.19127 617.936
25.001 -8.01212 617.518
25.2779 -7.73851 617.578
25.5573 -7.46551 617.696
24.9908 -8.28617 617.307
24.7141 -8.5595 617.245
23.8851 -9.65634 617.12
24.1582 -9.38203 617.094
24.4292 -9.10693 617.016
23.3342 -10.4799 617.083
23.3286 -10.7546 616.977
23.3233 -11.0294 616.881
23.6052 -10.2049 617.007
22.4647 -14.5994 616.295
22.1932 -14.8736 616.348
21.9287 -14.8752 616.55
23.2813 -13.7784 616.198
23.2957 -12.6782 616.407
23.2925 -12.9535 616.364
23.5663 -12.4033 616.327
23.2898 -13.2291 616.336
23.5587 -13.2304 616.256
22.4596 -14.8732 616.2
21.6564 -15.1488 616.579
21.9205 -15.1468 616.365
22.1874 -15.1468 616.231
23.5548 -13.5053 616.198
23.5509 -13.7801 616.138
23.8244 -13.5071 616.138
23.2766 -14.0526 616.116
23.3181 -11.304 616.785
23.5788 -11.5785 616.529
23.5842 -11.304 616.628
23.5738 -11.8531 616.441
23.5698 -12.1281 616.377
23.5633 -12.6788 616.293
27.0741 -4.17236 620.718
27.0544 -4.44792 620.304
27.0309 -4.72243 619.802
27.0092 -4.99684 619.342
26.9892 -5.27117 618.921
27.3567 -3.8969 620.862
27.3433 -4.17373 620.595
26.416 -6.09475 618.433
26.1252 -6.64359 618.098
25.8355 -7.19195 617.782
23.6009 -10.4802 616.935
23.8788 -9.93097 616.998
24.1518 -9.65675 616.973
24.4234 -9.38196 616.912
24.7035 -8.83303 617.021
23.8725 -10.2055 616.878
27.3189 -4.44851 620.077
27.2944 -4.72283 619.558
27.2728 -4.99721 619.106
26.9728 -5.54585 618.583
27.2542 -5.27175 618.72
26.6931 -5.82008 618.479
26.4032 -6.36949 618.171
26.113 -6.91805 617.847
26.3915 -6.64429 617.936
26.6822 -6.09546 618.264
26.9601 -5.82102 618.328
26.1029 -7.19289 617.649
24.6949 -9.10713 616.849
24.9719 -8.83423 616.92
24.981 -8.56015 617.104
25.2588 -8.28722 617.192
25.2673 -8.01261 617.359
25.5461 -7.73964 617.465
25.8246 -7.46637 617.56
25.5358 -8.01383 617.255
25.8142 -7.74075 617.352
26.093 -7.46757 617.452
25.2496 -8.5614 617.005
25.5262 -8.28808 617.063
24.1451 -9.93121 616.842
24.4172 -9.65672 616.797
24.6891 -9.38211 616.745
23.595 -10.7547 616.824
23.5894 -11.0293 616.721
23.8666 -10.4801 616.768
22.4557 -15.1478 616.139
21.9148 -15.42 616.25
23.5471 -14.0549 616.08
23.8211 -13.7823 616.094
23.2733 -14.3277 616.073
23.561 -12.9547 616.276
23.8339 -12.4041 616.216
23.8358 -12.128 616.223
23.8316 -12.6799 616.198
23.8268 -13.2314 616.157
23.8293 -12.9557 616.179
22.4523 -15.4225 616.09
21.6475 -15.4198 616.373
21.384 -15.4224 616.606
21.642 -15.693 616.263
21.3763 -15.694 616.43
21.9106 -15.6942 616.178
22.1805 -15.6962 616.129
24.0941 -13.5089 616.078
23.8183 -14.0577 616.062
24.0921 -13.7848 616.068
24.0955 -13.2326 616.073
24.3643 -13.511 616.032
23.544 -14.3301 616.042
23.2719 -14.6038 616.077
23.8442 -11.5781 616.355
23.8507 -11.3042 616.481
23.8389 -11.8526 616.261
23.8566 -11.0299 616.591
27.2393 -5.54672 618.421
26.6707 -6.37049 618.035
26.3807 -6.91908 617.72
26.6598 -6.64547 617.82
26.3702 -7.1938 617.514
23.862 -10.7552 616.69
24.1397 -10.2062 616.748
24.4119 -9.93173 616.704
24.6833 -9.65697 616.64
24.9631 -9.10822 616.742
25.2411 -8.8357 616.839
24.1342 -10.4809 616.647
27.2272 -5.82201 618.183
26.9487 -6.09626 618.104
26.939 -6.37171 617.92
26.6492 -6.92035 617.614
26.9283 -6.64674 617.712
27.2158 -6.09723 617.961
26.3618 -7.4689 617.354
26.6394 -7.19524 617.424
24.9554 -9.38249 616.593
25.233 -9.10999 616.681
25.5099 -8.83703 616.747
25.5184 -8.56274 616.913
25.795 -8.28942 616.97
25.8049 -8.01524 617.167
26.083 -7.74206 617.254
26.0729 -8.01633 617.053
26.3518 -7.74339 617.158
26.6305 -7.4702 617.254
25.7863 -8.56378 616.8
26.0636 -8.29069 616.872
24.4065 -10.2066 616.608
24.6784 -9.93212 616.558
24.9507 -9.65775 616.516
25.225 -9.38413 616.524
24.1294 -10.7559 616.567
22.4502 -15.6981 616.075
21.9083 -15.9696 616.158
23.8161 -14.3334 616.047
24.0899 -14.0606 616.055
24.3633 -13.7875 616.049
23.5432 -14.6067 616.063
23.2696 -14.8795 616.058
24.1016 -12.4048 616.104
24.1037 -12.1289 616.117
24.0996 -12.6808 616.096
24.1062 -11.8532 616.14
24.0979 -12.9569 616.092
22.7208 -15.7007 616.048
22.45 -15.9752 616.116
22.9921 -15.7038 616.037
21.6396 -15.9684 616.238
21.372 -15.968 616.354
21.114 -15.6976 616.7
21.1068 -15.9695 616.538
21.6364 -16.2432 616.195
21.3678 -16.242 616.279
22.1789 -15.9722 616.131
21.9065 -16.2454 616.151
22.1768 -16.2478 616.116
24.3652 -13.2345 616.015
24.6365 -13.5141 616.036
24.0883 -14.3368 616.056
24.3622 -14.0639 616.062
24.6355 -13.7907 616.054
24.367 -12.9584 616.018
24.6365 -13.2371 615.997
24.9088 -13.5174 616.044
23.8144 -14.6095 616.046
23.542 -14.8831 616.075
23.2675 -15.1552 616.047
24.1118 -11.5789 616.242
24.1184 -11.305 616.367
24.124 -11.0305 616.469
24.3859 -11.3058 616.252
27.2053 -6.37245 617.758
26.9178 -6.92162 617.508
27.1943 -6.64738 617.546
26.9073 -7.19633 617.304
24.4012 -10.4815 616.516
24.6736 -10.2072 616.477
24.9463 -9.9331 616.448
25.5017 -9.1113 616.59
24.397 -10.7567 616.449
27.48 -6.09755 617.752
27.1845 -6.92243 617.361
27.4689 -6.37261 617.541
26.6208 -7.74479 617.068
26.8978 -7.47113 617.124
25.2195 -9.65913 616.43
25.4941 -9.38562 616.445
25.7778 -8.83809 616.637
25.7706 -9.11268 616.503
26.0552 -8.56519 616.713
26.3325 -8.29209 616.784
26.3424 -8.0179 616.976
26.6112 -8.01924 616.883
26.8896 -7.74615 616.974
26.0471 -8.8396 616.558
26.3241 -8.56656 616.623
26.6023 -8.29373 616.713
24.6685 -10.4821 616.391
24.9417 -10.2083 616.375
25.2152 -9.93451 616.365
25.488 -9.66039 616.337
25.7634 -9.38717 616.37
24.3916 -11.0313 616.354
22.7207 -15.9778 616.088
24.0871 -14.6131 616.065
24.3607 -14.3402 616.066
24.6352 -14.0676 616.086
23.8144 -14.8866 616.088
23.5404 -15.1592 616.075
23.2652 -15.4308 616.029
24.3713 -12.4066 616.045
24.3732 -12.1306 616.054
24.3692 -12.6826 616.035
24.6422 -12.409 616.017
24.3761 -11.8551 616.085
24.6446 -12.1332 616.036
24.6403 -12.6851 616.011
24.381 -11.5804 616.167
24.6466 -11.8572 616.046
24.6383 -12.961 616.001
22.9918 -15.9807 616.072
23.2636 -15.7068 616.028
22.7202 -16.2546 616.118
22.4484 -16.2512 616.116
23.2634 -15.9839 616.067
23.5362 -15.7107 616.05
22.9911 -16.2574 616.097
21.1014 -16.2426 616.427
21.3651 -16.5171 616.245
20.8458 -15.9743 616.851
20.8364 -16.2443 616.621
21.0963 -16.5159 616.324
21.6341 -16.5186 616.174
21.9043 -16.5209 616.135
21.3626 -16.7924 616.221
22.1753 -16.5239 616.12
22.4465 -16.5269 616.108
24.9098 -13.2408 616.027
24.9087 -13.7944 616.08
24.3602 -14.617 616.092
24.6342 -14.3442 616.102
24.9082 -14.0713 616.109
24.9109 -12.9644 616.015
25.1825 -13.5213 616.08
25.1834 -13.2447 616.063
25.1823 -13.7983 616.115
24.0867 -14.89 616.096
23.8134 -15.1631 616.102
23.5385 -15.4351 616.068
24.6498 -11.5818 616.086
24.6547 -11.3071 616.169
24.6599 -11.0325 616.259
24.9242 -11.3088 616.103
27.4602 -6.64804 617.381
27.1755 -7.19753 617.194
27.4514 -6.92331 617.22
27.1662 -7.47236 617.018
24.6643 -10.7574 616.328
24.9372 -10.4834 616.303
25.2117 -10.2101 616.317
25.4844 -9.93602 616.289
27.4428 -7.19848 617.062
26.8804 -8.02071 616.799
27.1578 -7.74733 616.866
25.7571 -9.66185 616.257
26.0333 -9.38895 616.31
26.0397 -9.11414 616.421
26.317 -8.84135 616.496
26.3107 -9.1163 616.387
26.5944 -8.56841 616.569
26.8718 -8.29533 616.639
27.1489 -8.02199 616.7
26.5879 -8.84342 616.456
26.8643 -8.57012 616.504
27.1412 -8.29687 616.562
24.9331 -10.7587 616.241
25.2077 -10.4855 616.26
25.4813 -10.2118 616.253
25.7538 -9.9376 616.217
26.0274 -9.66381 616.209
26.3039 -9.39095 616.265
24.9293 -11.034 616.188
24.3599 -14.894 616.126
24.6336 -14.621 616.128
24.9072 -14.3479 616.124
24.0861 -15.1668 616.122
23.8118 -15.4393 616.105
24.9146 -12.4122 616.026
24.916 -12.1359 616.02
24.9122 -12.688 616.006
25.188 -12.4158 616.055
24.9174 -11.8595 616.014
25.1856 -12.6917 616.037
24.9204 -11.584 616.05
25.1837 -12.9678 616.031
23.2624 -16.2604 616.084
23.5354 -15.9873 616.071
23.8095 -15.7149 616.085
22.7186 -16.5306 616.118
22.9905 -16.5341 616.123
23.5348 -16.2641 616.097
23.8078 -15.991 616.085
23.2618 -16.5372 616.111
20.8292 -16.5159 616.454
21.0925 -16.7901 616.261
21.6331 -16.795 616.192
20.5753 -16.2492 616.932
20.5644 -16.5179 616.655
20.8241 -16.7891 616.352
21.0906 -17.0657 616.252
21.9034 -16.7974 616.156
22.1737 -16.7999 616.121
21.3613 -17.0686 616.231
21.6321 -17.0714 616.208
22.4455 -16.8034 616.125
22.7172 -16.8068 616.124
25.1819 -14.0753 616.145
24.6334 -14.8981 616.163
24.9068 -14.6248 616.153
25.1804 -14.3517 616.149
25.4556 -13.5249 616.102
25.456 -13.248 616.074
25.4556 -13.802 616.141
25.7281 -13.5281 616.108
25.4576 -12.9716 616.072
25.7294 -13.2516 616.099
25.4551 -14.079 616.169
25.7278 -13.8051 616.14
24.3584 -15.1703 616.131
24.0846 -15.4431 616.126
25.1917 -11.5865 616.027
25.1956 -11.3113 616.085
25.2004 -11.0364 616.162
25.4671 -11.3139 616.067
27.4335 -7.47334 616.892
27.4253 -7.74833 616.744
25.2037 -10.7608 616.202
25.4783 -10.4876 616.22
25.7509 -10.2135 616.187
26.0237 -9.93942 616.159
27.4178 -8.02341 616.612
26.2983 -9.66597 616.173
26.575 -9.39317 616.233
26.581 -9.11818 616.334
26.8576 -8.8451 616.389
26.8515 -9.12015 616.286
27.1339 -8.57175 616.433
27.4099 -8.29823 616.47
27.1268 -8.8466 616.31
27.4031 -8.57326 616.353
25.4742 -10.7629 616.16
25.7478 -10.4892 616.151
26.0208 -10.2153 616.129
26.2939 -9.94134 616.108
26.5691 -9.66808 616.134
26.845 -9.39496 616.174
25.47 -11.0381 616.098
24.6315 -15.1741 616.154
24.9053 -14.9012 616.157
25.179 -14.628 616.153
24.3573 -15.4468 616.143
24.0826 -15.719 616.116
25.461 -12.4192 616.075
25.4613 -12.1423 616.045
25.459 -12.6953 616.067
25.7339 -12.4225 616.092
25.4616 -11.8654 616.013
25.4637 -11.5893 616.023
23.5339 -16.5407 616.115
23.8076 -16.2681 616.121
24.0813 -15.9954 616.125
22.9891 -16.8103 616.13
23.2611 -16.8139 616.135
23.8066 -16.5447 616.138
24.0804 -16.272 616.143
23.533 -16.8173 616.136
20.5564 -16.7887 616.462
20.8204 -17.0633 616.289
21.9025 -17.0739 616.175
20.3013 -16.5214 616.909
20.2907 -16.7901 616.636
20.551 -17.0616 616.35
20.8186 -17.3391 616.285
21.0893 -17.342 616.262
21.3603 -17.345 616.248
22.1735 -17.0769 616.158
22.4445 -17.0799 616.142
21.6314 -17.3481 616.236
21.9019 -17.3507 616.206
22.7164 -17.0834 616.146
22.9879 -17.0867 616.139
25.4542 -14.3557 616.187
24.9047 -15.1781 616.182
25.1782 -14.9048 616.174
25.4523 -14.6319 616.179
26.0013 -13.5316 616.128
25.7311 -12.9753 616.102
26.0022 -13.2549 616.112
25.7289 -14.0829 616.204
26.001 -13.8087 616.16
25.7332 -12.6992 616.112
26.0043 -12.9788 616.123
26.2753 -13.2583 616.127
25.7281 -14.3598 616.225
26.0022 -14.0866 616.227
24.6293 -15.45 616.141
24.3556 -15.723 616.142
25.7357 -11.5921 616.017
25.7375 -11.3159 616.022
25.74 -11.04 616.043
25.7435 -10.7645 616.088
26.0179 -10.4911 616.097
26.2913 -10.2173 616.084
26.565 -9.94356 616.075
27.6771 -8.29912 616.345
26.8401 -9.67025 616.099
27.122 -9.12207 616.236
27.1162 -9.39716 616.142
27.3974 -8.84855 616.262
27.6722 -8.57475 616.272
27.3919 -9.12384 616.175
27.6676 -8.85041 616.207
26.0138 -10.7665 616.039
26.2886 -10.4933 616.06
26.5624 -10.2196 616.052
26.8362 -9.94585 616.047
27.3879 -9.39955 616.122
24.9025 -15.454 616.169
25.1775 -15.1817 616.197
25.451 -14.9084 616.187
24.354 -15.9991 616.141
25.7339 -12.1454 616.051
26.007 -12.4258 616.11
25.7342 -11.8685 616.021
26.0073 -12.1488 616.077
26.0067 -12.7028 616.14
26.2797 -12.429 616.117
26.0075 -11.8719 616.044
26.0074 -11.5948 616.004
23.8052 -16.8209 616.142
24.0793 -16.5485 616.157
24.3534 -16.276 616.169
23.2598 -17.0902 616.143
23.5322 -17.094 616.156
24.0781 -16.825 616.166
24.3517 -16.5522 616.166
24.6262 -16.2798 616.185
23.8045 -17.0977 616.167
20.2838 -17.0617 616.477
20.5479 -17.3362 616.304
22.1731 -17.3539 616.194
20.0268 -16.793 616.87
20.0184 -17.0633 616.66
19.7654 -16.7982 617.186
20.279 -17.3349 616.38
20.8161 -17.6143 616.259
21.088 -17.6181 616.271
20.5442 -17.6104 616.243
21.3585 -17.6208 616.242
21.6295 -17.6238 616.227
22.4448 -17.3573 616.194
22.716 -17.3604 616.181
21.9008 -17.6271 616.221
22.1718 -17.6301 616.202
22.9877 -17.3638 616.179
23.2598 -17.3675 616.187
25.7267 -14.6363 616.229
25.1758 -15.4579 616.195
25.4511 -15.1857 616.229
25.7251 -14.9126 616.23
26.2749 -13.5354 616.157
26.2748 -13.8126 616.193
26.277 -12.982 616.131
26.0018 -14.3637 616.255
26.2743 -14.0896 616.219
26.2782 -12.7054 616.12
26.5497 -12.9852 616.136
26.5489 -13.262 616.155
26.549 -13.5393 616.194
26.001 -14.6406 616.276
26.2751 -14.3673 616.277
26.5483 -14.0935 616.255
24.9009 -15.7302 616.168
26.0087 -11.3183 615.996
26.0102 -11.0419 615.992
26.2796 -11.3206 615.963
26.2821 -11.0446 615.983
26.2856 -10.7691 616.027
26.5601 -10.4957 616.037
26.8332 -10.2217 616.015
27.1085 -9.9485 616.041
27.3846 -9.67544 616.083
27.6643 -9.12642 616.169
26.5577 -10.7718 616.019
26.8318 -10.4982 616.021
27.1059 -10.2246 616.019
27.3813 -9.95134 616.047
25.1749 -15.7347 616.213
25.45 -15.4624 616.243
25.7246 -15.1897 616.257
24.9005 -16.0073 616.199
26.2803 -12.1521 616.093
26.552 -12.4319 616.114
26.2802 -11.875 616.052
26.5529 -12.1551 616.096
26.5502 -12.7082 616.11
26.8243 -12.4348 616.109
26.2798 -11.5977 616.005
26.5529 -11.878 616.059
24.0771 -17.1016 616.182
24.3514 -16.8293 616.198
24.6254 -16.5566 616.206
24.8998 -16.2842 616.221
23.5321 -17.3712 616.196
23.8046 -17.3751 616.211
24.3508 -17.1062 616.224
24.6245 -16.8334 616.224
24.8997 -16.5614 616.258
24.0769 -17.3788 616.219
20.0129 -17.3359 616.54
20.2747 -17.6084 616.298
22.4438 -17.6338 616.21
19.7543 -17.0662 616.888
19.7487 -17.3387 616.763
20.008 -17.609 616.439
19.7423 -17.6105 616.615
19.4921 -17.0709 617.181
19.2279 -17.0739 617.415
19.4834 -17.3408 616.958
20.8138 -17.8896 616.238
20.5421 -17.8857 616.226
21.0858 -17.8936 616.254
21.3568 -17.8967 616.241
20.5408 -18.1618 616.236
21.6272 -17.8992 616.208
21.8988 -17.9027 616.207
22.716 -17.6377 616.223
22.9877 -17.6411 616.223
22.1708 -17.9066 616.218
22.443 -17.9105 616.232
23.2598 -17.6448 616.227
23.532 -17.6485 616.237
25.9999 -14.9173 616.288
25.4494 -15.7394 616.267
25.7251 -15.4673 616.308
25.9995 -15.1944 616.316
26.5491 -13.8166 616.235
26.8223 -12.9882 616.138
26.2751 -14.6447 616.313
26.8231 -12.7114 616.12
26.8226 -13.2657 616.183
26.8235 -13.5434 616.242
26.8238 -13.8209 616.285
26.2749 -14.9219 616.347
26.8241 -14.3758 616.366
26.8238 -14.0982 616.322
25.1743 -16.0116 616.238
26.5525 -11.3237 615.975
26.5551 -11.0477 615.997
26.5523 -11.6007 616.008
26.8297 -10.7744 616.009
27.1039 -10.5008 616.01
27.3791 -10.2276 616.033
27.9271 -9.95702 616.058
26.8279 -11.0507 616.005
27.102 -10.7772 616.005
27.3761 -10.5035 616.004
27.652 -10.2305 616.04
25.4492 -16.0166 616.302
25.7247 -15.7445 616.338
26.0005 -15.4724 616.38
25.1746 -16.2892 616.285
26.8258 -12.1583 616.106
26.826 -11.8812 616.073
27.0974 -12.438 616.122
27.099 -12.1615 616.12
27.0963 -12.7147 616.134
26.8249 -11.6036 616.011
24.3504 -17.3833 616.255
24.6243 -17.1107 616.261
24.8994 -16.8386 616.292
25.175 -16.5668 616.333
23.8039 -17.652 616.236
24.0772 -17.6564 616.267
24.6254 -17.3888 616.328
24.8994 -17.1161 616.333
25.1752 -16.8445 616.379
24.3518 -17.6617 616.332
20.0033 -17.8822 616.345
22.7156 -17.9147 616.258
19.4771 -17.6126 616.809
19.7363 -17.8825 616.478
19.4702 -17.8837 616.641
19.2188 -17.3434 617.174
19.2118 -17.6146 617.002
18.9549 -17.3469 617.422
18.9462 -17.6166 617.193
18.6795 -17.6175 617.347
20.8123 -18.1655 616.24
21.0833 -18.1687 616.229
20.5397 -18.4382 616.253
21.3544 -18.1719 616.218
20.8107 -18.4415 616.242
20.5397 -18.7156 616.302
21.8969 -18.1785 616.199
22.1692 -18.1826 616.219
22.9879 -17.9186 616.271
23.2596 -17.922 616.266
22.4421 -18.1871 616.253
22.7148 -18.1914 616.278
23.5313 -17.9254 616.26
23.8041 -17.9295 616.281
26.2755 -15.1997 616.4
25.7252 -16.0222 616.389
26.0014 -15.7504 616.438
26.2757 -15.4773 616.443
27.0963 -12.992 616.172
27.0969 -13.2695 616.221
26.8264 -14.6545 616.457
27.0979 -13.5474 616.281
27.0989 -13.8252 616.341
27.3723 -13.5513 616.32
27.0995 -14.103 616.391
26.5521 -15.2053 616.494
27.1006 -14.381 616.454
27.1043 -14.6605 616.576
27.378 -14.3866 616.558
25.4497 -16.2943 616.352
26.8257 -11.3269 615.993
27.1006 -11.0537 616.01
27.3748 -10.7801 616.009
27.6493 -10.5065 616.015
27.9247 -10.2332 616.04
28.1962 -10.2356 616.014
27.9234 -10.5099 616.047
28.1957 -10.5125 616.037
27.0993 -11.3302 616.018
27.3742 -11.057 616.034
27.648 -10.7831 616.022
25.7272 -16.3009 616.474
26.0018 -16.0281 616.487
26.2785 -15.7565 616.547
25.4512 -16.5728 616.429
27.0993 -11.8845 616.091
27.099 -11.6072 616.046
27.3706 -12.4413 616.135
27.3724 -12.1649 616.139
27.3703 -12.7184 616.166
27.3729 -11.8879 616.115
27.3696 -12.9953 616.186
24.6274 -17.6677 616.419
24.9015 -17.395 616.424
25.1769 -17.1231 616.461
25.4544 -16.8524 616.545
24.0775 -17.934 616.316
24.353 -17.9401 616.403
25.4574 -17.132 616.657
24.6304 -17.9474 616.534
22.9867 -18.1951 616.282
19.2038 -17.8848 616.798
19.1971 -18.1559 616.633
18.9385 -17.8869 616.993
18.6736 -17.8896 617.207
18.4051 -17.8888 617.302
18.6665 -18.1603 617.025
18.4031 -18.1646 617.291
21.0815 -18.4445 616.224
21.3523 -18.4474 616.203
20.8098 -18.7179 616.261
20.2689 -18.7124 616.316
20.5389 -18.9921 616.324
21.0804 -18.7208 616.238
20.2678 -18.9887 616.332
20.8093 -18.9949 616.296
19.998 -18.7092 616.329
21.896 -18.4551 616.222
22.1679 -18.4589 616.229
22.4405 -18.4632 616.255
23.2582 -18.1983 616.271
23.53 -18.2018 616.269
22.7133 -18.4676 616.282
22.9853 -18.4714 616.288
23.8038 -18.2068 616.318
24.0791 -18.2127 616.4
26.5545 -15.4842 616.587
26.0053 -16.3078 616.608
26.282 -16.0362 616.667
27.3705 -13.2731 616.242
27.6448 -13.2769 616.278
26.829 -14.9334 616.553
26.8314 -15.2123 616.648
27.374 -13.8296 616.396
27.3757 -14.1079 616.47
27.6474 -13.5556 616.373
27.65 -13.8343 616.467
27.653 -14.1133 616.57
25.7286 -16.5794 616.548
27.3738 -11.3339 616.061
27.9218 -10.7864 616.049
28.1958 -10.7897 616.075
28.1954 -11.0668 616.104
27.3731 -11.6108 616.083
27.9225 -11.0639 616.101
27.6454 -12.4453 616.184
27.6471 -12.1687 616.184
27.6441 -12.7219 616.191
27.6471 -11.8915 616.148
27.644 -12.9992 616.225
27.648 -11.6147 616.133
24.3557 -18.2196 616.513
23.257 -18.4748 616.282
18.9319 -18.1582 616.832
18.9272 -18.4311 616.731
18.9239 -18.7054 616.676
18.3961 -18.4353 617.11
18.6613 -18.4328 616.905
18.1353 -18.4424 617.467
18.6581 -18.7072 616.853
18.3925 -18.7093 617.043
18.1293 -18.714 617.317
21.3519 -18.7244 616.24
21.6235 -18.7281 616.242
21.0796 -18.9975 616.262
19.9969 -18.9856 616.346
20.267 -19.2654 616.358
20.5379 -19.2687 616.345
20.8092 -19.2721 616.339
21.3516 -19.0015 616.276
19.9958 -19.2619 616.361
21.0805 -19.2756 616.334
21.8958 -18.7323 616.26
22.1682 -18.7365 616.281
22.4403 -18.7404 616.291
22.7124 -18.7443 616.302
23.5298 -18.479 616.306
23.8051 -18.4852 616.39
22.9847 -18.7483 616.315
23.257 -18.7522 616.326
24.0807 -18.4915 616.482
27.9206 -13.2815 616.347
27.9191 -13.0033 616.276
27.9232 -13.5601 616.439
27.9283 -13.8402 616.587
27.9325 -14.1199 616.716
27.9223 -11.341 616.132
28.4666 -11.069 616.068
28.1965 -11.3444 616.162
28.4692 -11.3473 616.16
28.1961 -11.6216 616.191
27.922 -11.6181 616.16
27.9206 -12.4493 616.237
27.9211 -12.1723 616.214
27.9196 -12.7262 616.252
27.9219 -11.8953 616.195
23.53 -18.7567 616.354
18.9228 -18.9817 616.692
18.6567 -18.9833 616.86
18.9224 -19.2588 616.73
18.3919 -18.9864 617.077
17.8688 -18.7218 617.692
18.1268 -18.9892 617.285
17.8583 -18.9885 617.382
18.6581 -19.2624 616.959
18.3939 -19.2662 617.199
18.1267 -19.2668 617.336
21.6235 -19.0054 616.286
21.8951 -19.0091 616.287
21.3513 -19.2787 616.315
19.9949 -19.5384 616.382
20.266 -19.5418 616.375
20.5375 -19.5457 616.381
20.8086 -19.5491 616.371
21.0803 -19.5529 616.375
21.6229 -19.2824 616.317
19.7254 -19.5365 616.438
19.995 -19.816 616.436
21.3518 -19.5565 616.375
22.1673 -19.0132 616.303
22.4398 -19.0174 616.323
22.7118 -19.0212 616.329
22.9834 -19.0247 616.324
23.8059 -18.7634 616.455
23.256 -19.0289 616.341
28.1983 -13.2868 616.453
28.196 -13.0083 616.366
28.2033 -13.5667 616.596
28.1959 -12.7308 616.327
28.2075 -13.8463 616.724
28.4698 -11.6248 616.209
28.1961 -11.8989 616.226
28.7407 -11.6269 616.166
28.4703 -11.9023 616.255
28.1955 -12.4533 616.284
28.1961 -12.1762 616.262
18.9237 -19.5378 616.825
19.1896 -19.5359 616.651
18.6598 -19.5418 617.07
18.9268 -19.8187 616.98
17.8563 -19.2642 617.368
18.1256 -19.5435 617.355
17.8551 -19.5408 617.384
18.3939 -19.5439 617.25
18.3928 -19.8206 617.269
