-1.61643 50.2575 596.28
-1.35821 50.2718 596.412
-1.61579 50.5499 596.602
-1.09965 50.278 596.448
-1.35769 50.574 596.85
-1.61483 50.8323 596.806
-0.840976 50.282 596.459
-1.09901 50.5829 596.918
-0.582222 50.2845 596.452
-0.84015 50.5883 596.944
-1.35718 50.8762 597.284
-0.323436 50.2867 596.441
-1.09833 50.8872 597.375
-0.581183 50.5906 596.935
-0.322179 50.5939 596.935
-0.839315 50.8949 597.428
-1.35667 51.1798 597.729
-1.09764 51.1916 597.828
-0.580162 50.8996 597.446
-0.838428 51.1983 597.869
-0.320955 50.9039 597.459
-0.579091 51.2042 597.902
-1.356 51.4775 598.101
-1.09696 51.4961 598.279
-0.837534 51.5028 598.319
-0.31967 51.2066 597.891
-0.577989 51.5077 598.339
-1.35513 51.768 598.385
-1.09623 51.7991 598.707
-0.836653 51.8078 598.77
-0.576906 51.8127 598.789
-0.317111 51.8163 598.793
-1.09551 52.1035 599.147
-0.83575 52.1125 599.213
-0.575765 52.1131 599.181
-0.315809 52.1181 599.202
-1.09462 52.4 599.492
-0.834805 52.4154 599.631
-0.574654 52.4166 599.607
-0.314504 52.4203 599.61
-1.09351 52.6858 599.712
-0.833798 52.7141 599.996
-1.09228 52.9669 599.876
-0.573537 52.7203 600.028
-0.313184 52.723 600.021
-0.832689 53.0068 600.29
-0.572378 53.0199 600.4
-0.311863 53.0224 600.391
-0.0513164 53.0285 600.421
-0.831606 53.3021 600.61
-0.571202 53.3193 600.766
-0.310538 53.3245 600.786
-0.0498147 53.3306 600.816
-0.830486 53.5953 600.904
-0.570015 53.619 601.132
-0.309216 53.6264 601.176
-0.0483228 53.6323 601.203
0.212655 53.6388 601.238
-0.829556 53.9015 601.339
-0.568814 53.9174 601.479
-0.828177 54.1775 601.436
-0.307881 53.9282 601.561
-0.0468314 53.9319 601.563
0.214312 53.938 601.592
-0.567612 54.2153 601.817
-0.306572 54.2334 601.978
-0.566377 54.511 602.128
-0.0453366 54.2367 601.977
0.215969 54.2408 601.983
-0.305252 54.5374 602.379
-0.0438315 54.543 602.403
-0.565089 54.8013 602.375
-0.563736 55.0867 602.568
-0.303894 54.8379 602.738
0.217642 54.543 602.364
-0.0423378 54.8498 602.831
0.219338 54.8526 602.822
-0.30253 55.134 603.046
-0.301109 55.4227 603.269
-0.0408343 55.1523 603.207
0.221029 55.1591 603.242
0.482947 55.1655 603.273
-0.0393096 55.4481 603.506
-0.299691 55.7112 603.488
0.222686 55.4601 603.598
-0.0378101 55.7475 603.843
0.484761 55.4672 603.636
0.746908 55.4723 603.652
0.224351 55.7622 603.962
-0.298306 56.0086 603.802
0.486593 55.7693 604
-0.036292 56.0492 604.2
0.226029 56.0649 604.33
0.748936 55.7775 604.049
0.488423 56.0717 604.363
-0.296988 56.3175 604.236
0.750924 56.0794 604.407
-0.0347844 56.354 604.587
0.227697 56.3666 604.683
0.490249 56.3732 604.714
0.752865 56.3784 604.731
-0.033265 56.6592 604.975
1.01553 56.384 604.751
0.22937 56.6716 605.068
0.492092 56.6781 605.098
0.754857 56.6817 605.096
1.01768 56.6864 605.107
-0.0317456 56.9591 605.303
0.231046 56.9722 605.403
0.493911 56.9798 605.443
0.756825 56.9841 605.449
-0.0302375 57.2652 605.693
0.232717 57.2752 605.759
0.495739 57.2826 605.798
