-21.4948 -11.3033 643.175
-21.2247 -11.3088 643.322
-21.4905 -11.5839 642.999
-21.2201 -11.5892 643.135
-21.229 -11.0281 643.501
-20.9557 -11.315 643.511
-21.4859 -11.8641 642.813
-21.2154 -11.8695 642.945
-20.9592 -11.0338 643.667
-20.9454 -11.8752 643.097
-20.6816 -11.6016 643.495
-20.6862 -11.3211 643.688
-20.9409 -12.1554 642.911
-20.6763 -11.8816 643.282
-20.4161 -11.3269 643.854
-20.4121 -11.6078 643.678
-21.4761 -12.4236 642.425
-21.2053 -12.429 642.545
-20.6714 -12.1616 643.081
-20.9361 -12.4353 642.714
-20.4198 -11.0456 644.021
-20.4017 -12.1678 643.25
-20.4068 -11.8879 643.461
-20.1366 -11.8938 643.624
-20.1416 -11.6137 643.837
-20.1453 -11.3325 644.005
-20.6669 -12.4417 642.892
-20.1317 -12.174 643.417
-20.1495 -11.0514 644.189
-19.8746 -11.3382 644.163
-19.8703 -11.619 643.973
-21.4705 -12.7028 642.213
-21.2009 -12.7088 642.361
-20.6627 -12.7218 642.711
-20.3977 -12.4483 643.075
-20.3936 -12.7285 642.897
-20.4243 -10.7647 644.212
-20.1537 -10.7702 644.374
-19.8788 -11.0571 644.354
-20.3901 -13.0089 642.736
-19.5853 -12.7487 643.456
-19.8824 -10.7755 644.521
-19.6081 -11.0629 644.521
-20.6547 -13.2818 642.363
-20.1205 -13.0155 642.907
-20.3861 -13.2889 642.56
-20.1172 -13.296 642.752
-20.1576 -10.4887 644.549
-20.4331 -10.2021 644.592
-19.8863 -10.494 644.7
-19.6116 -10.7812 644.688
-20.3811 -13.5681 642.352
-19.5817 -13.0293 643.287
-19.3155 -12.7556 643.647
-19.3119 -13.0362 643.474
-19.3182 -12.4742 643.79
-19.3078 -13.3163 643.283
-19.5776 -13.3094 643.101
-19.0461 -12.7627 643.855
-19.3213 -12.193 643.947
-19.0606 -11.3549 644.614
-20.6498 -13.5609 642.163
-20.3762 -13.8471 642.147
-20.6455 -13.8403 641.98
-20.1073 -13.8543 642.334
-19.5739 -13.5896 642.926
-20.162 -10.2073 644.742
-20.4378 -9.92072 644.79
-20.7085 -9.91549 644.631
-20.1664 -9.92572 644.935
-20.9793 -9.91039 644.48
-20.441 -9.63846 644.942
-19.6198 -10.218 645.06
-20.1037 -14.1341 642.169
-19.3046 -13.5969 643.124
-19.0489 -12.4813 644.003
-19.0519 -12.2 644.16
-19.0349 -13.6041 643.317
-19.0545 -11.9182 644.301
-19.0319 -13.8848 643.163
-19.3008 -13.8769 642.944
-18.7826 -12.2073 644.386
-19.0569 -11.6362 644.435
-18.7905 -11.3614 644.82
-18.7876 -11.6433 644.665
-18.7942 -11.0798 645.001
-18.7852 -11.9254 644.529
-18.5186 -11.6508 644.915
-18.5215 -11.3688 645.072
-20.914 -13.8332 641.795
-20.372 -14.1264 641.964
-20.6406 -14.1191 641.777
-20.0997 -14.4135 641.992
-20.9091 -14.112 641.596
-19.8353 -14.1419 642.379
-19.8314 -14.4214 642.201
-19.5698 -13.8693 642.739
-20.7131 -9.63392 644.823
-20.9845 -9.62917 644.689
-20.7166 -9.35171 644.982
-19.6233 -9.9358 645.227
-20.1736 -9.36126 645.265
-20.9882 -9.34708 644.851
-20.4487 -9.07405 645.283
-19.3487 -10.2235 645.232
-19.3524 -9.94135 645.407
-19.8269 -14.7003 642.001
-19.0286 -14.1651 642.997
-18.7597 -14.1731 643.219
-18.7558 -14.4528 643.029
-19.0249 -14.4449 642.819
-19.2941 -14.4371 642.616
-18.5244 -11.0866 645.23
-21.1825 -13.8262 641.614
-21.1771 -14.1045 641.402
-20.0958 -14.6928 641.816
-20.364 -14.685 641.614
-19.2892 -14.7159 642.401
-19.5542 -14.9873 642.018
-20.721 -9.06972 645.167
-20.9932 -9.06539 645.052
-19.9028 -9.36653 645.44
-19.8979 -9.08012 645.331
-20.1766 -9.07855 645.411
-20.1646 -8.78919 645.079
-20.9978 -8.7834 645.243
-20.452 -8.79141 645.439
-20.7246 -8.78725 645.329
-20.0913 -14.9715 641.621
-19.5507 -15.2667 641.853
-19.285 -14.995 642.208
-19.0205 -14.724 642.613
-19.017 -15.0037 642.444
-20.3591 -14.9633 641.411
-20.0858 -15.2493 641.396
-20.3531 -15.2406 641.17
-19.283 -15.2756 642.088
