-11.1638 37.0188 593.309
-11.1742 37.3213 593.941
-10.6657 37.6034 594.183
-11.4185 36.7476 593.201
-10.9262 37.6178 594.44
-11.6683 36.1945 592.773
-11.9265 35.9354 592.857
-12.1798 34.8625 592.49
-12.1778 34.5904 592.322
-12.1835 35.1396 592.741
-12.1864 35.4146 592.953
-12.1895 35.6905 593.177
-12.1791 34.3277 592.313
-12.1829 34.0721 592.426
-12.187 33.8172 592.555
-11.9295 33.5449 592.35
-11.9293 33.278 592.267
-12.1897 33.5584 592.615
-11.9262 33.0032 592.039
-7.33272 37.8838 594.059
-6.81494 38.1325 593.769
-5.5192 38.3246 592.514
-5.77705 38.3343 592.695
-6.29691 38.3773 593.422
-7.59228 37.8977 594.308
-7.85182 37.9107 594.542
-7.0758 38.1547 594.145
-6.55739 38.3998 593.799
-5.78001 38.6271 593.153
-6.04032 38.6507 593.547
-5.52164 38.615 592.936
-12.1824 32.7399 592.044
-12.438 32.4751 592.019
-12.6931 32.2097 591.981
-12.6854 31.9245 591.551
-12.9397 31.658 591.487
-12.9476 31.9426 591.912
-13.1939 31.3914 591.42
-13.4469 31.1225 591.307
-13.9548 30.5901 591.177
-14.2069 30.0562 590.984
-14.2093 30.3256 591.141
-14.4477 29.7639 590.393
-14.4648 30.0635 591.151
-13.9626 30.8722 591.572
-13.7075 31.1362 591.591
-14.2167 30.6063 591.513
-11.4281 37.0463 593.778
-11.674 36.4793 593.137
-11.9316 36.2179 593.185
-11.6825 36.7734 593.646
-11.6929 37.0739 594.25
-11.4431 37.3628 594.632
-12.442 34.3488 592.705
-12.4581 35.9947 593.893
-12.7148 35.7299 593.89
-12.4438 34.0875 592.721
-12.4473 33.8306 592.816
-12.4504 33.5726 592.893
-12.1901 33.2931 592.562
-12.1867 33.0175 592.322
-12.4503 33.3059 592.816
-12.4427 32.7536 592.317
-7.33704 38.1775 594.531
-6.81837 38.4234 594.196
-6.30036 38.671 593.889
-8.11021 37.9176 594.68
-7.59814 38.1981 594.883
-8.36782 37.9206 594.758
-7.85875 38.2152 595.18
-7.3411 38.4702 594.981
-7.07937 38.4456 594.57
-6.56095 38.693 594.258
-5.52371 38.9031 593.318
-5.78234 38.916 593.545
-6.04244 38.9373 593.901
-5.78509 39.208 593.98
-12.6993 32.4912 592.338
-12.9545 32.2253 592.295
-13.2092 31.9588 592.238
-13.2022 31.6765 591.858
-13.4545 31.4051 591.703
-13.4634 31.6913 592.16
-14.4701 30.3392 591.429
-14.7212 29.8034 591.2
-14.7244 30.0742 591.385
-14.981 29.8144 591.44
-14.732 30.3545 591.751
-14.225 30.8891 591.92
-13.9716 31.1571 592.013
-14.4776 30.6197 591.796
-13.7165 31.4218 592.043
-11.947 36.7997 594.1
-11.9607 37.1098 594.856
-12.2186 36.8462 594.88
-12.2287 37.1447 595.445
-12.7042 34.3671 593.048
-12.7049 34.1025 593.01
-12.7209 36.0142 594.243
-12.4667 36.2869 594.374
-12.9756 35.7433 594.141
-12.9726 35.4681 593.935
-12.9802 36.023 594.418
-12.7279 36.3012 594.637
-13.2317 35.4766 594.106
-12.9692 35.1921 593.711
-13.2348 35.7521 594.315
-13.2286 35.2016 593.901
-12.7081 33.8448 593.093
-12.711 33.5861 593.159
-12.7115 33.321 593.111
-12.4474 33.032 592.609
-12.7089 33.048 592.923
-12.7038 32.7687 592.617
-12.9599 32.5048 592.612
-6.82213 38.7169 594.655
-6.30332 38.962 594.309
-8.11933 38.2312 595.459
-7.60284 38.4932 595.368
-7.08311 38.738 595.01
-8.37935 38.2436 595.683
-7.8646 38.515 595.735
-7.34458 38.7603 595.384
-6.82528 39.0071 595.06
-6.56422 38.9849 594.689
-6.04533 39.2293 594.333
-5.52574 39.1914 593.697
-5.26858 39.1896 593.638
-5.5285 39.4852 594.154
-5.78831 39.5038 594.465
-5.27015 39.4759 593.983
-13.2159 32.2407 592.603
-13.4726 31.9785 592.628
-13.7264 31.7098 592.531
-13.979 31.439 592.391
-14.987 30.0907 591.732
-15.2392 29.5574 591.554
-15.241 29.8254 591.683
-15.4973 29.5646 591.721
-15.2485 30.1045 592.027
-14.9957 30.3729 592.133
-14.7417 30.6393 592.199
-14.4874 30.9054 592.257
-14.2337 31.1732 592.343
-12.4823 36.8676 595.256
-11.9769 37.4284 595.736
-12.7352 36.5895 595.047
-12.7428 36.879 595.47
-12.4914 37.1627 595.763
-12.7522 37.1743 595.979
-12.243 37.4566 596.214
-13.0021 36.8867 595.623
-12.9639 34.3783 593.268
-12.9659 34.1171 593.291
-12.9644 34.646 593.357
-12.9684 33.8574 593.34
-13.2389 36.03 594.563
-12.9856 36.3054 594.735
-13.4912 35.4861 594.293
-13.4877 35.2102 594.074
-13.2258 34.9277 593.71
-13.4957 35.7648 594.556
-13.2453 36.3147 594.917
-12.9937 36.5954 595.173
-12.9661 34.9171 593.503
-13.4843 34.9348 593.86
-13.2243 34.6571 593.576
-13.4825 34.6636 593.714
-12.9717 33.5994 593.42
-12.9729 33.336 593.406
-12.9706 33.064 593.236
-12.9659 32.7859 592.954
-13.2217 32.5208 592.929
-13.4789 32.2595 592.975
-6.3065 39.2547 594.749
-8.12624 38.535 596.075
-8.63965 38.2568 595.918
-7.60687 38.7854 595.801
-7.08693 39.031 595.455
-6.56757 39.2776 595.128
-8.90063 38.2721 596.189
-8.38766 38.5528 596.381
-7.86886 38.8075 596.172
-7.34848 39.0529 595.821
-6.82892 39.3006 595.507
-6.0488 39.5254 594.822
-5.2715 39.7611 594.305
-5.53079 39.7761 594.561
-5.27295 40.0471 594.636
-5.79097 39.7962 594.893
-13.7355 31.9966 592.989
-13.9881 31.7248 592.836
-14.2423 31.4573 592.761
-14.4971 31.1912 592.712
-15.5019 29.8378 591.951
-15.7582 29.5767 591.986
-15.7578 29.3115 591.914
-16.0156 29.3176 592.06
-15.7649 29.8538 592.293
-15.5112 30.1202 592.36
-15.2587 30.3896 592.483
-15.0049 30.6566 592.557
-14.7511 30.9241 592.638
-13.2536 36.6049 595.355
-12.5059 37.4742 596.524
-13.2646 36.903 595.916
-13.0152 37.1919 596.291
-13.517 36.6236 595.689
-13.2242 34.3905 593.507
-13.2258 34.1283 593.513
-13.2286 33.869 593.57
-13.2318 33.6108 593.649
-13.5012 36.0465 594.863
-13.7562 35.5095 594.713
-13.7422 34.6736 593.913
-13.763 35.794 595.07
-13.5075 36.3308 595.209
-13.4823 34.3967 593.641
-13.7408 34.4037 593.79
-13.4841 34.1349 593.655
-13.7422 34.1409 593.787
-13.2342 33.3505 593.69
-13.2334 33.082 593.586
-13.2283 32.8033 593.294
-13.4853 32.5407 593.318
-13.743 32.28 593.377
-13.9972 32.0112 593.285
-6.30974 39.5481 595.195
-8.13089 38.8285 596.526
-7.6104 39.0754 596.194
-8.64915 38.5699 596.676
-7.09063 39.3239 595.892
-6.57121 39.5725 595.594
-8.91122 38.5887 596.998
-8.3934 38.8506 596.895
-7.87286 39.0991 596.588
-7.61405 39.3663 596.597
-7.35226 39.3454 596.249
-6.83268 39.5951 595.965
-6.05206 39.8206 595.29
-5.01416 40.3116 594.613
-5.53296 40.0666 594.957
-5.27366 40.3279 594.885
-5.01311 40.5792 594.667
-5.27308 40.5989 594.988
-5.53435 40.3516 595.266
-5.79376 40.0897 595.332
-14.2503 31.7406 593.156
-14.5069 31.4778 593.173
-14.7616 31.2112 593.116
-15.0144 30.9412 592.991
-16.0192 29.5888 592.25
-16.2742 29.3252 592.235
-16.2742 29.0608 592.181
-16.2809 29.6017 592.531
-16.5318 29.0663 592.314
-16.028 29.8695 592.627
-15.7757 30.1391 592.754
-15.5224 30.407 592.846
-15.2685 30.6741 592.92
-13.7742 36.3579 595.684
-13.5357 36.9422 596.578
-13.7879 36.6616 596.337
-14.0439 36.392 596.271
-13.4878 33.8778 593.752
-13.4916 33.6211 593.858
-13.4949 33.3629 593.938
-14.0028 34.4194 594.088
-14.0019 34.1508 593.987
-13.7459 33.8837 593.883
-14.005 33.8919 594.054
-13.495 33.0966 593.874
-13.491 32.8205 593.633
-13.7483 32.5584 593.668
-14.0054 32.2959 593.694
-14.2602 32.0284 593.629
-14.5161 31.7636 593.611
-6.31331 39.8442 595.674
-8.13507 39.1203 596.943
-8.65549 38.8695 597.217
-7.09412 39.616 596.311
-6.5752 39.8699 596.091
-9.17414 38.6101 597.36
-8.91773 38.8881 597.533
-8.39703 39.1391 597.26
-9.43618 38.6268 597.65
-8.13881 39.4103 597.327
-7.87658 39.3897 596.983
-7.35624 39.6393 596.693
-7.6182 39.6602 597.04
-6.83663 39.8913 596.441
-6.05509 40.1147 595.735
-5.79553 40.3766 595.668
-5.01119 40.8397 594.617
-5.27111 40.8594 594.936
-5.53438 40.6269 595.431
-5.00874 41.0957 594.502
-5.26839 41.1138 594.797
-5.53242 40.8878 595.382
-14.7709 31.4966 593.552
-15.0244 31.2272 593.445
-15.2788 30.96 593.376
-15.5329 30.6926 593.302
-16.5354 29.3371 592.497
-16.7915 29.0753 592.52
-16.5435 29.616 592.841
-16.2909 29.8846 592.949
-16.7976 29.3503 592.788
-17.0524 28.8218 592.714
-17.0536 29.0882 592.806
-16.0384 30.1539 593.069
-15.7859 30.4234 593.19
-14.302 36.1279 596.294
-14.059 36.6989 596.973
-14.3123 36.4215 596.784
-14.5671 36.1487 596.666
-14.5599 35.8634 596.31
-13.7509 33.6297 594.036
-13.7544 33.3718 594.123
-13.7559 33.109 594.123
-14.266 33.9043 594.299
-14.0094 33.6361 594.177
-14.2686 33.6441 594.345
-14.0135 33.3796 594.289
-13.7534 32.8368 593.953
-14.0115 32.5762 594.017
-14.2681 32.3122 594.02
-14.5244 32.0475 594.009
-14.7801 31.7819 593.979
-15.0344 31.5136 593.897
-6.31649 40.1382 596.115
-6.05694 40.4013 596.064
-8.65996 39.1612 597.629
-8.40107 39.4298 597.653
-7.09821 39.9119 596.781
-6.57802 40.1607 596.483
-6.31867 40.4261 596.462
-9.18039 38.9076 597.864
-9.69761 38.6402 597.888
-8.92275 39.1816 597.971
-7.8804 39.6811 597.386
-9.44275 38.9248 598.16
-9.96111 38.6611 598.242
-9.18528 39.1997 598.28
-8.14294 39.7026 597.74
-7.36024 39.9337 597.139
-7.62215 39.9536 597.468
-6.83976 40.183 596.844
-6.58019 40.4478 596.815
-5.79593 40.6542 595.863
-5.7945 40.9192 595.871
-5.52958 41.142 595.237
-5.52693 41.3974 595.112
-5.79177 41.1747 595.744
-15.2881 31.2444 593.795
-15.5428 30.9775 593.736
-15.7961 30.7084 593.631
-16.0491 30.439 593.517
-17.0604 29.3644 593.095
-16.807 29.6315 593.173
-16.5548 29.901 593.298
-16.302 30.1698 593.405
-17.3131 28.8321 592.946
-17.3156 29.1007 593.082
-17.5742 28.8427 593.186
-14.8203 35.8724 596.488
-14.5531 35.5793 595.968
-14.8275 36.1572 596.836
-14.8129 35.5872 596.129
-14.3256 36.7235 597.403
-14.5755 36.4371 597.067
-14.8354 36.4443 597.215
-14.5885 36.7377 597.663
-15.0788 35.8764 596.584
-15.0862 36.1616 596.937
-15.071 35.5907 596.217
-14.0159 33.1191 594.331
-14.0153 32.8512 594.24
-14.5267 33.9157 594.525
-14.5288 33.6544 594.553
-14.2728 33.3877 594.46
-14.5325 33.3964 594.642
-14.2764 33.1298 594.548
-14.2745 32.5929 594.347
-14.2775 32.8659 594.532
-14.5319 32.3302 594.377
-14.7884 32.0658 594.372
-15.0435 31.7985 594.315
-15.298 31.5304 594.239
-15.5527 31.263 594.173
-6.05761 40.6803 596.277
-6.05604 40.9444 596.271
-8.66439 39.4531 598.039
-8.40519 39.7213 598.054
-7.10153 40.2038 597.187
-6.3194 40.705 596.672
-6.31753 40.9674 596.638
-9.7056 38.9431 598.473
-10.224 38.6786 598.544
-8.92728 39.4732 598.375
-8.66809 39.742 598.397
-7.88417 39.9727 597.786
-7.36319 40.2228 597.5
-9.44775 39.2168 598.572
-9.96887 38.9623 598.798
-10.4868 38.6952 598.832
-9.71052 39.2342 598.869
-9.18987 39.4911 598.677
-8.14673 39.9934 598.128
-7.88777 40.2638 598.172
-7.1044 40.4936 597.555
-7.62559 40.2444 597.854
-7.36617 40.5124 597.864
-6.84249 40.4727 597.214
-6.58109 40.7275 597.033
-6.57965 40.9926 597.038
-6.0533 41.2004 596.148
-5.78995 41.4368 595.711
-6.0513 41.4616 596.1
-15.8068 30.9945 594.086
-16.0597 30.7244 593.964
-16.3128 30.455 593.853
-16.5655 30.1854 593.735
-17.3234 29.3784 593.4
-17.0707 29.6467 593.502
-17.5789 29.1148 593.393
-16.8184 29.9164 593.627
-17.835 28.5881 593.362
-17.8359 28.8541 593.442
-18.0928 28.593 593.484
-17.8429 29.1298 593.721
-15.3385 35.8834 596.728
-15.3307 35.5982 596.37
-14.8066 35.3051 595.817
-14.5452 35.2931 595.585
-15.0647 35.3089 595.909
-14.8012 35.0255 595.542
-15.3482 36.1735 597.163
-15.3232 35.3137 596.019
-14.8511 36.7507 597.904
-15.096 36.4527 597.382
-15.5927 35.6104 596.602
-15.6013 35.8973 596.988
-15.5852 35.3264 596.261
-14.7878 33.9278 594.765
-14.7899 33.6661 594.787
-14.7935 33.408 594.874
-14.5372 33.1409 594.774
-14.797 33.1495 594.955
-14.5389 32.8784 594.783
-14.5371 32.608 594.65
-14.7946 32.3453 594.68
-15.0519 32.0823 594.704
-14.7988 32.6209 594.91
-15.3073 31.8155 594.656
-15.5613 31.5461 594.558
-15.8161 31.2785 594.493
-16.07 31.0095 594.398
-6.31498 41.2252 596.539
-8.40904 40.0118 598.434
-8.14977 40.281 598.461
-6.84334 40.7516 597.419
-6.57711 41.251 596.944
-6.31195 41.4797 596.394
-10.2327 38.9829 599.145
-10.7495 38.7105 599.099
-8.93159 39.7642 598.764
-8.67188 40.0317 598.763
-8.4122 40.2994 598.766
-7.6286 40.5335 598.208
-7.10545 40.7732 597.769
-9.45231 39.5074 598.955
-9.97413 39.2542 599.205
-10.4958 38.9995 599.432
-11.0152 38.7358 599.522
-9.71579 39.5271 599.286
-9.19447 39.7827 599.074
-8.93472 40.0504 599.074
-7.89041 40.5502 598.487
-7.62917 40.8099 598.371
-7.10387 41.0379 597.762
-6.84198 41.0173 597.431
-7.36722 40.7916 598.071
-7.36586 41.0576 598.082
-6.83931 41.2754 597.33
-6.57388 41.5048 596.787
-16.3228 30.7391 594.272
-16.5759 30.4695 594.16
-16.8288 30.1999 594.043
-17.0809 29.9294 593.907
-17.5884 29.3953 593.764
-17.3342 29.6614 593.817
-18.0981 28.8659 593.707
-18.354 28.603 593.713
-18.3524 28.3362 593.616
-18.3615 28.8793 594.005
-18.6123 28.3439 593.799
-18.1065 29.144 594.031
-17.8531 29.4113 594.11
-15.8571 35.6277 596.922
-15.0597 35.0304 595.654
-15.3184 35.0359 595.776
-14.5391 35.0114 595.275
-14.7968 34.7483 595.304
-15.0566 34.7566 595.475
-15.5783 35.044 595.94
-15.314 34.7591 595.546
-15.6154 36.1975 597.587
-15.8681 35.9198 597.391
-15.8492 35.3431 596.571
-16.1135 35.36 596.884
-16.1235 35.6491 597.309
-15.8415 35.0591 596.226
-15.0503 33.9425 595.049
-15.0506 33.6768 595.003
-15.0513 34.2113 595.148
-14.7918 34.4699 595.043
-15.0536 33.4171 595.063
-15.057 33.1583 595.14
-14.7996 32.8889 595.001
-15.0598 32.8981 595.193
-15.057 32.3594 594.965
-15.0605 32.6331 595.159
-15.3148 32.0971 595.004
-15.5702 31.83 594.953
-15.8257 31.5634 594.91
-16.0797 31.2941 594.814
-16.3329 31.0237 594.693
-16.5861 30.7537 594.578
-8.15219 40.5659 598.75
-7.89127 40.8278 598.666
-7.10091 41.2945 597.64
-6.83622 41.5306 597.19
-10.2384 39.2757 599.565
-10.7592 39.0165 599.725
-11.5338 38.4702 599.581
-8.67502 40.3185 599.082
-8.41435 40.5824 599.025
-8.15304 40.843 598.921
-7.62768 41.0752 598.371
-7.36257 41.3128 597.937
-9.45744 39.8006 599.375
-9.19789 40.0696 599.395
-9.97933 39.5462 599.607
-10.5018 39.2929 599.858
-11.2819 38.7636 599.983
-11.0238 39.0372 600.073
-10.7656 39.3111 600.167
-9.72065 39.8187 599.679
-9.46104 40.0878 599.699
-8.93789 40.337 599.388
-8.67753 40.6028 599.359
-7.88925 41.0905 598.626
-7.62413 41.3294 598.21
-7.88556 41.3445 598.461
-7.62057 41.5835 598.049
-7.09743 41.5479 597.473
-6.836 41.8033 597.302
-16.8393 30.484 594.466
-17.0929 30.2156 594.377
-17.3462 29.947 594.281
-17.6001 29.6796 594.206
-18.6168 28.6153 593.991
-18.8719 28.3512 593.973
-18.8696 28.0834 593.856
-18.6259 28.8939 594.328
-18.3721 29.1607 594.395
-18.8791 28.6266 594.247
-19.1286 28.0896 594.007
-18.1184 29.428 594.469
-17.8647 29.6954 594.545
-16.1062 35.0769 596.556
-15.573 34.7652 595.678
-14.5317 34.7271 594.914
-15.0533 34.4822 595.283
-15.3112 34.4863 595.38
-15.5694 34.4907 595.485
-15.835 34.7781 595.926
-16.0996 34.5292 596.204
-15.3089 33.9481 595.175
-15.3097 33.6836 595.15
-15.3094 34.2156 595.252
-15.5659 33.9503 595.24
-15.3118 33.4218 595.173
-15.567 34.2191 595.338
-15.3161 33.1648 595.284
-15.3199 32.9066 595.373
-15.3214 32.6436 595.376
-15.3201 32.3745 595.267
-15.5775 32.111 595.287
-15.8335 31.8449 595.258
-15.5816 32.3858 595.502
-16.0894 31.5788 595.226
-16.3433 31.309 595.123
-16.5962 31.038 594.993
-16.8507 30.7702 594.922
-17.1046 30.5017 594.835
-8.15113 41.1065 598.892
-8.41518 40.8592 599.191
-8.1476 41.3617 598.743
-7.35847 41.5634 597.727
-7.09534 41.8095 597.423
-10.2429 39.5646 599.917
-9.98416 39.8371 599.987
-11.7982 38.4891 599.906
-11.5468 38.784 600.33
-12.0625 38.507 600.217
-11.2892 39.0598 600.452
-8.41337 41.1233 599.169
-8.67786 40.8771 599.486
-9.20114 40.3561 599.704
-8.94032 40.6205 599.652
-9.72423 40.1053 599.992
-10.507 39.5841 600.244
-10.2478 39.855 600.288
-11.8099 38.7979 600.575
-11.03 39.3305 600.495
-10.7711 39.6024 600.554
-10.5111 39.8711 600.563
-9.46422 40.3735 599.995
-9.2029 40.6362 599.917
-8.67572 41.1398 599.442
-8.94039 40.8934 599.757
-7.88187 41.5982 598.294
-7.87883 41.8553 598.177
-8.14326 41.6126 598.534
-7.6174 41.8395 597.918
-7.35602 41.823 597.649
-17.3579 30.2323 594.729
-17.612 29.9648 594.658
-19.1334 28.3611 594.202
-19.3897 28.0987 594.221
-19.3893 27.8339 594.166
-18.889 28.9063 594.604
-18.6357 29.174 594.687
-19.1427 28.6396 594.538
-18.3838 29.4442 594.82
-19.3975 28.3747 594.507
-19.6481 27.8394 594.306
-18.1317 29.7146 594.951
-17.8784 29.9834 595.048
-15.8298 34.5001 595.674
-15.8269 34.2272 595.507
-16.0924 34.2472 595.882
-16.0864 33.9679 595.604
-15.5665 33.6853 595.206
-15.5692 33.4247 595.251
-15.8237 33.6877 595.277
-15.8238 33.9541 595.335
-15.5742 33.1692 595.389
-15.5793 32.9137 595.527
-15.5824 32.6538 595.589
-15.8402 32.1246 595.565
-15.843 32.3966 595.725
-16.0975 31.8608 595.579
-16.3539 31.5954 595.564
-15.8426 32.6621 595.766
-16.6077 31.3253 595.457
-16.861 31.0548 595.338
-17.1155 30.7867 595.266
-17.3691 30.5173 595.164
-17.623 30.249 595.081
-8.41021 41.3808 599.052
-8.40666 41.6362 598.905
-9.98816 40.125 600.318
-9.7273 40.3901 600.274
-12.5776 38.2291 600.087
-12.3286 38.5298 600.604
-11.5529 39.0757 600.727
-11.8149 39.0853 600.907
-12.0734 38.8123 600.83
-12.5938 38.5491 600.934
-11.2939 39.3472 600.781
-11.556 39.3573 600.967
-8.67259 41.3977 599.33
-8.93822 41.1561 599.711
-8.93473 41.4127 599.578
-9.20294 40.9089 600.017
-9.46622 40.6544 600.218
-10.2517 40.1422 600.608
-9.99102 40.4085 600.58
-12.0766 39.0935 601.063
-12.3363 38.8246 601.051
-11.0344 39.6176 600.815
-11.2965 39.6275 600.998
-10.7751 39.8888 600.861
-11.0372 39.899 601.048
-10.5151 40.1582 600.879
-10.7774 40.169 601.073
-9.46544 40.9235 600.263
-9.72927 40.6706 600.488
-9.20033 41.1698 599.944
-8.14096 41.8739 598.475
-8.40486 41.9002 598.884
-19.6521 28.1096 594.473
-19.6513 27.5796 594.358
-19.9105 27.85 594.552
-19.1544 28.9218 594.946
-18.9014 29.1903 595.042
-19.4085 28.6554 594.888
-18.6473 29.4572 595.104
-19.6628 28.3895 594.839
-18.3956 29.7282 595.248
-19.91 27.585 594.496
-19.9188 28.1263 594.846
-18.144 30.0002 595.405
-17.8893 30.2672 595.461
-16.0844 33.6976 595.478
-16.0876 33.438 595.542
-15.827 33.4284 595.344
-15.8326 33.1741 595.502
-15.8388 32.9206 595.679
-16.1027 32.1374 595.827
-16.1045 32.4072 595.947
-16.1023 32.6692 595.921
-16.3616 31.8765 595.899
-16.365 32.1494 596.076
-16.6177 31.6103 595.87
-16.8719 31.3407 595.773
-16.0984 32.9275 595.83
-17.1267 31.0727 595.706
-17.3801 30.8023 595.591
-17.6341 30.5337 595.507
-8.66917 41.6542 599.197
-8.66733 41.9181 599.173
-9.72786 40.937 600.494
-9.99225 40.6857 600.743
-12.8482 38.2649 600.678
-13.3695 38.005 600.832
-12.599 38.8354 601.249
-11.8168 39.3625 601.078
-12.0769 39.3656 601.156
-11.8164 39.6324 601.136
-12.3381 39.1009 601.21
-12.8586 38.5662 601.231
-13.1162 38.2914 601.126
-12.8611 38.8445 601.421
-11.5571 39.6323 601.102
-11.5562 39.9005 601.133
-8.93134 41.6696 599.452
-9.19639 41.4248 599.786
-9.19305 41.6822 599.665
-8.92977 41.935 599.448
-9.46208 41.1814 600.146
-9.72419 41.1938 600.359
-10.2549 40.4268 600.883
-10.5172 40.4379 601.08
-9.99016 40.9494 600.708
-10.2551 40.6998 600.984
-12.3368 39.3676 601.218
-12.0754 39.6317 601.155
-12.5989 39.106 601.319
-11.2974 39.9021 601.126
-11.2967 40.1713 601.171
-11.0379 40.1734 601.169
-11.0375 40.4435 601.227
-10.7779 40.4429 601.187
-10.7775 40.7134 601.249
-9.45806 41.4363 599.986
-9.98592 41.2043 600.544
-20.1701 27.5922 594.671
-20.173 27.3317 594.713
-20.175 27.8634 594.859
-19.4204 28.938 595.299
-19.1674 29.2066 595.396
-19.6757 28.673 595.275
-18.9135 29.474 595.466
-19.9309 28.4081 595.251
-18.6608 29.7438 595.583
-20.1865 28.1439 595.239
-18.4089 30.0153 595.728
-20.4313 27.6008 594.875
-18.1557 30.2851 595.838
-17.8998 30.5506 595.86
-16.0928 33.1824 595.679
-16.3529 33.4568 595.904
-16.3551 33.1949 595.929
-16.3649 32.4155 596.125
-16.362 32.6761 596.073
-16.3583 32.9351 595.993
-16.6244 31.8893 596.163
-16.6264 32.1594 596.286
-16.6242 32.4215 596.262
-16.6208 32.6811 596.191
-16.8807 31.6233 596.138
-17.1357 31.355 596.069
-16.8857 31.8988 596.366
-17.3909 31.0874 596.012
-17.645 30.8182 595.922
-9.19032 41.9423 599.585
-10.2524 40.961 600.911
-10.2481 41.2159 600.745
-13.1232 38.5823 601.513
-13.6389 38.0344 601.328
-13.3832 38.3141 601.513
-14.1529 37.7534 601.151
-13.9054 38.0546 601.678
-12.8597 39.1109 601.425
-12.5969 39.3706 601.295
-12.3351 39.6332 601.21
-12.0744 39.8993 601.178
-11.8149 39.8987 601.138
-13.1229 38.852 601.568
-13.1213 39.1181 601.566
-12.8579 39.3761 601.41
-11.5552 40.1686 601.161
-11.8142 40.1673 601.174
-9.45426 41.692 599.839
-9.45007 41.9458 599.669
-8.67123 42.4831 599.651
-9.71948 41.4462 600.162
-9.98141 41.4579 600.364
-10.5168 40.7086 601.146
-10.5146 40.9721 601.106
-12.5954 39.6366 601.294
-12.335 39.9037 601.277
-11.2968 40.4432 601.255
-11.5562 40.4433 601.289
-11.0379 40.7168 601.332
-11.2985 40.7211 601.428
-10.7762 40.9804 601.26
-11.0387 40.9917 601.458
-10.7744 41.2456 601.244
-9.71594 41.7034 600.036
-10.2433 41.4687 600.554
-20.4303 27.3349 594.801
-20.4405 27.8777 595.185
-20.6914 27.3432 595.002
-20.6947 27.0831 595.054
-19.6902 28.9591 595.756
-19.4347 29.2243 595.781
-19.9453 28.6935 595.723
-19.1795 29.4902 595.817
-20.1996 28.427 595.668
-18.9266 29.7599 595.927
-20.4541 28.161 595.623
-18.6752 30.0322 596.088
-20.7072 27.8934 595.539
-18.4223 30.3027 596.209
-20.6962 27.614 595.181
-18.165 30.5662 596.189
-17.9096 30.8331 596.235
-16.6156 33.2035 596.11
-16.6174 32.9407 596.121
-16.8867 32.1669 596.451
-16.8835 32.4272 596.392
-16.8791 32.6851 596.289
-16.8755 32.9445 596.216
-17.1432 31.6348 596.381
-17.1473 31.9087 596.577
-17.3998 31.3693 596.367
-17.6553 31.1022 596.321
-17.1472 32.1749 596.625
-9.71395 41.9671 600.006
-10.5103 41.2276 600.948
-10.5066 41.4849 600.82
-13.3862 38.5932 601.715
-13.3851 38.8608 601.735
-13.6478 38.3294 601.784
-13.9106 38.3394 601.97
-13.6483 38.6014 601.873
-14.4236 37.7844 601.675
-14.1702 38.0698 601.949
-14.9422 37.5157 601.692
-14.1733 38.3485 602.144
-13.9095 38.6068 601.987
-13.1201 39.385 601.578
-12.8575 39.6457 601.463
-12.5962 39.9101 601.405
-12.0751 40.1728 601.289
-12.3373 40.1824 601.465
-13.3831 39.1255 601.711
-13.3826 39.3945 601.755
-13.1213 39.6596 601.705
-11.8166 40.4468 601.373
-8.41223 42.4835 599.623
-8.67352 42.7675 599.913
-8.41315 42.7616 599.796
-7.89473 42.7615 599.728
-9.97748 41.7137 600.217
-10.2404 41.729 600.471
-12.8597 39.9232 601.634
-12.5993 40.1908 601.622
-11.5603 40.7293 601.581
-11.3022 41.0061 601.701
-11.0397 41.2675 601.596
-10.7725 41.5103 601.221
-11.0397 41.5394 601.676
-10.5047 41.7495 600.798
-20.9604 27.626 595.46
-20.9549 27.3543 595.263
-20.9561 27.0914 595.258
-21.2172 27.0992 595.447
-19.9597 28.9796 596.199
-19.7058 29.2474 596.273
-20.2138 28.7122 596.132
-19.4484 29.5104 596.247
-20.4682 28.4455 596.076
-19.1924 29.7754 596.262
-20.7214 28.1773 595.989
-18.94 30.0465 596.394
-20.9718 27.9059 595.828
-18.6885 30.3194 596.56
-21.2259 27.6396 595.773
-18.4328 30.5859 596.597
-18.1754 30.8496 596.579
-17.9196 31.1163 596.616
-16.8742 33.2082 596.222
-17.1341 33.2152 596.373
-17.1435 32.4342 596.545
-17.1384 32.6909 596.422
-17.1349 32.9505 596.351
-17.4063 31.6473 596.642
-17.4091 31.9187 596.789
-17.4075 32.1821 596.784
-17.6642 31.384 596.671
-17.4036 32.4411 596.699
-13.6464 38.8665 601.855
-13.6445 39.1316 601.837
-14.17 38.6099 602.067
-13.9065 38.8688 601.921
-14.1666 38.8709 601.986
-14.6925 37.8097 602.108
-14.4354 38.0857 602.23
-14.4355 38.3562 602.296
-15.2179 37.557 602.385
-14.9597 37.8297 602.457
-14.6993 38.0975 602.447
-14.9618 38.1054 602.603
-14.4319 38.6168 602.206
-14.4273 38.8749 602.078
-13.9045 39.1338 601.901
-13.3851 39.6727 601.936
-12.0792 40.4577 601.567
-13.6443 39.4017 601.895
-13.6471 39.6804 602.084
-13.1267 39.9466 602.018
-11.8235 40.7421 601.803
-7.89609 43.0429 599.945
-7.63266 42.7455 599.47
-7.63697 43.0441 599.927
-7.63664 43.3167 600.018
-7.37623 43.036 599.78
-7.37666 43.3133 599.938
-10.2427 42.2829 600.782
-12.8665 40.2153 602.021
-12.6052 40.4809 601.976
-11.5673 41.0259 602.025
-11.3056 41.2905 601.964
-11.3074 41.5693 602.141
-10.5092 42.312 601.229
-21.2181 27.3649 595.513
-21.4798 27.1088 595.677
-21.4809 26.8456 595.667
-21.4853 27.3804 595.871
-20.228 28.9976 596.593
-19.9737 29.2652 596.658
-20.4826 28.7308 596.539
-19.7186 29.532 596.706
-19.4614 29.7956 596.689
-20.7354 28.4616 596.435
-20.9872 28.1913 596.306
-19.2052 30.0611 596.707
-21.2402 27.9231 596.216
-18.9525 30.3321 596.833
-21.4977 27.661 596.256
-18.6987 30.602 596.934
-18.4428 30.8685 596.968
-18.1856 31.1331 596.962
-17.9289 31.3987 596.975
-17.6695 31.6597 596.899
-17.3956 33.2252 596.578
-17.3955 32.9587 596.525
-17.3987 33.4974 596.734
-17.3987 32.6983 596.583
-17.6703 31.9275 596.978
-17.6677 32.189 596.937
-17.6631 32.447 596.833
-17.9323 31.671 597.139
-17.6586 32.7051 596.732
-13.9049 39.4051 601.979
-14.1643 39.135 601.951
-14.4243 39.1371 602.015
-14.164 39.4046 602.002
-14.6976 38.3634 602.44
-14.6933 38.6224 602.324
-15.2257 37.8463 602.751
-15.4893 37.5865 602.888
-15.2243 38.1131 602.755
-15.4903 37.8591 602.985
-15.7483 37.3152 602.842
-14.959 38.3686 602.552
-14.9541 38.6261 602.413
-15.2201 38.3728 602.648
-15.2152 38.6307 602.514
-14.6885 38.8801 602.19
-14.6851 39.1413 602.11
-14.4243 39.4074 602.077
-13.3911 39.9614 602.273
-13.907 39.682 602.139
-13.6531 39.9686 602.414
-14.1677 39.6855 602.224
-13.1336 40.2388 602.404
-11.831 41.0397 602.26
-12.0927 41.0464 602.391
-7.11852 43.5962 600.135
-6.85756 43.5871 599.976
-7.12219 43.8944 600.573
-6.59688 43.5792 599.833
-10.2523 42.5954 601.436
-9.73043 42.857 601.302
-12.8756 40.5151 602.516
-11.5725 41.3161 602.37
-11.5777 41.607 602.719
-11.8389 41.3391 602.738
-10.7772 42.3454 601.736
-10.5168 42.615 601.746
-9.99646 42.8845 601.721
-21.7424 27.1181 595.902
-21.739 26.8493 595.769
-21.7417 26.5881 595.803
-21.9993 26.8557 595.929
-21.9997 26.5917 595.902
-21.7533 27.3965 596.242
-20.4958 29.0147 596.966
-20.2418 29.283 597.043
-20.7487 28.7451 596.859
-19.9871 29.5505 597.104
-21.0005 28.4744 596.725
-19.7313 29.8168 597.135
-19.4748 30.0819 597.145
-21.2551 28.2078 596.674
-21.5121 27.9445 596.694
-19.2191 30.3487 597.183
-18.9642 30.6169 597.249
-18.7079 30.883 597.272
-21.7674 27.6792 596.668
-22.0197 27.4103 596.562
-18.451 31.1485 597.282
-18.1928 31.4117 597.248
-18.4556 31.4225 597.478
-18.195 31.6819 597.37
-17.9315 31.9359 597.16
-17.6559 33.2327 596.74
-17.6558 32.9661 596.686
-17.6576 33.5022 596.846
-17.9134 33.2348 596.805
-17.4025 33.7712 596.915
-17.1425 33.7646 596.769
-17.6609 33.775 597.008
-17.9144 33.503 596.887
-17.9273 32.1947 597.069
-17.9224 32.4522 596.955
-17.9181 32.7108 596.863
-18.1916 31.9423 597.305
-18.1873 32.201 597.21
-17.9147 32.9708 596.797
-14.6851 39.4114 602.17
-14.428 39.688 602.294
-14.9496 38.8847 602.292
-15.4866 38.1201 602.896
-15.4812 38.3771 602.747
-15.755 37.6012 603.154
-15.7527 37.866 603.125
-15.7483 38.1255 603.013
-15.7433 38.3836 602.88
-16.0168 37.3366 603.217
-16.2691 37.0501 602.923
-16.0182 37.6099 603.324
-16.015 37.8726 603.26
-15.2108 38.8896 602.399
-14.9465 39.1469 602.229
-15.4764 38.6353 602.618
-15.4725 38.8957 602.524
-15.2076 39.1515 602.331
-14.9454 39.4141 602.242
-14.6879 39.6894 602.346
-13.4005 40.2608 602.765
-14.1733 39.9718 602.525
-13.6627 40.268 602.905
-14.4345 39.9766 602.629
-13.1419 40.5356 602.853
-12.1013 41.3474 602.89
-6.86103 43.885 600.411
-6.59995 43.8757 600.249
-6.33775 43.8579 599.972
-6.33469 43.5603 599.54
-6.86434 44.1824 600.833
-7.12628 44.1954 601.045
-6.60271 44.1705 600.638
-6.60402 44.456 600.895
-6.34063 44.1546 600.388
-6.07412 43.8285 599.536
-6.07701 44.1264 599.97
-10.2615 42.9064 602.062
-9.73871 43.1668 601.906
-10.7846 42.6468 602.229
-9.47475 43.1485 601.617
-9.20895 43.1205 601.194
-9.21611 43.4278 601.76
-13.1494 40.8302 603.266
-11.5836 41.9005 603.103
-11.8466 41.6385 603.209
-12.1109 41.6526 603.446
-10.5269 42.9288 602.41
-10.0022 43.1825 602.16
-9.74153 43.4528 602.174
-9.47913 43.442 601.991
-22.0068 27.1295 596.171
-22.2604 26.5984 596.071
-22.265 26.8685 596.232
-22.5154 26.3337 596.047
-22.2748 27.1451 596.535
-20.7618 29.0288 597.278
-20.5088 29.2987 597.386
-21.0139 28.758 597.148
-20.2543 29.5669 597.456
-19.998 29.8326 597.475
-21.2673 28.4893 597.059
-19.7427 30.0999 597.524
-21.5248 28.2263 597.088
-19.4869 30.3667 597.561
-21.7807 27.9613 597.073
-22.0333 27.6923 596.97
-19.2303 30.6325 597.578
-18.9722 30.896 597.548
-18.7146 31.1603 597.533
-18.977 31.1701 597.746
-22.2885 27.4267 596.94
-22.5435 27.1613 596.909
-18.7167 31.4301 597.647
-18.4552 31.6882 597.512
-18.7153 31.6942 597.65
-18.4516 31.9483 597.442
-18.7109 31.9531 597.557
-18.1704 33.2359 596.851
-17.9173 33.7749 597.033
-18.1727 32.9738 596.877
-17.4062 34.0452 597.094
-17.1459 34.0377 596.937
-17.6657 34.0508 597.221
-16.8804 33.7533 596.543
-16.8843 34.0278 596.735
-17.9238 34.0537 597.298
-18.1826 32.459 597.105
-18.1776 32.7164 596.99
-18.4474 32.2073 597.354
-18.4425 32.4651 597.244
-14.9489 39.6938 602.445
-15.738 38.6409 602.735
-16.0101 38.1312 603.133
-16.0049 38.3888 602.992
-16.001 38.6497 602.903
-15.7355 38.9047 602.695
-16.2815 37.3484 603.437
-16.2813 37.6181 603.485
-16.5356 37.0661 603.213
-16.7774 36.7577 602.557
-16.8017 37.0808 603.483
-16.277 37.8783 603.382
-16.2716 38.1359 603.238
-15.4711 39.1622 602.526
-15.2076 39.4217 602.39
-15.7355 39.175 602.753
-15.4733 39.438 602.669
-14.6947 39.9785 602.689
-13.9237 40.2717 602.992
-13.4099 40.5604 603.255
-14.1847 40.2751 603.075
-13.6744 40.5738 603.486
-14.9568 39.9853 602.823
-14.4452 40.2771 603.137
-11.8547 41.9394 603.696
-5.81306 44.0933 599.486
-6.07135 43.5318 599.113
-6.32989 43.2513 598.943
-5.81078 43.7988 599.095
-6.86759 44.4797 601.25
-6.34217 44.4424 600.677
-6.60466 44.737 601.089
-7.13087 44.5 601.56
-6.86982 44.7707 601.577
-6.08031 44.4278 600.445
-6.343 44.7253 600.898
-6.08268 44.7227 600.828
-10.2677 43.2056 602.515
-10.0062 43.4731 602.489
-9.4814 43.7262 602.231
-10.7909 42.9448 602.668
-10.5346 43.2336 602.939
-9.22041 43.722 602.139
-8.95941 43.7176 602.044
-13.419 40.8595 603.73
-13.1592 41.1325 603.784
-12.8992 41.4052 603.833
-11.5902 42.1972 603.527
-12.1193 41.954 603.94
-10.2742 43.5063 602.984
-9.74444 43.7394 602.447
-22.5224 26.6065 596.273
-22.5311 26.8815 596.541
-22.7818 26.3469 596.365
-22.7859 26.6163 596.51
-23.0473 26.3587 596.649
-22.7969 26.8939 596.835
-21.0291 29.0444 597.622
-20.776 29.3144 597.729
-21.2823 28.7749 597.521
-20.5219 29.5834 597.813
-21.5374 28.5083 597.479
-20.2654 29.8489 597.826
-20.0088 30.1146 597.839
-19.7525 30.3809 597.864
-21.7947 28.2446 597.495
-19.4957 30.6467 597.878
-22.0473 27.9752 597.39
-19.2365 30.9086 597.816
-22.3023 27.709 597.35
-22.5581 27.4439 597.332
-19.5003 30.9201 598.063
-19.2398 31.1803 597.965
-18.9778 31.4377 597.816
-19.2383 31.4442 597.964
-18.9748 31.6991 597.768
-22.8104 27.1748 597.226
-23.0665 26.9105 597.222
-18.9703 31.9579 597.672
-18.706 32.211 597.448
-18.9657 32.2166 597.576
-18.436 32.9862 597.129
-18.4379 32.7234 597.143
-17.4113 34.3218 597.318
-17.1503 34.3133 597.143
-17.6699 34.3256 597.412
-17.9307 34.3335 597.577
-16.8971 34.5873 597.291
-18.1897 34.3378 597.68
-18.7019 32.4702 597.364
-18.6986 32.7307 597.304
-15.2127 39.7054 602.653
-15.9986 38.9138 602.867
-16.267 38.3952 603.124
-16.2635 38.6569 603.046
-16.2623 38.924 603.056
-16.0003 39.1882 602.989
-16.5449 37.3571 603.609
-16.5438 37.6246 603.62
-16.5387 37.8831 603.488
-17.0512 36.7895 603.107
-16.8074 37.3636 603.743
-17.0686 37.097 603.775
-17.0708 37.3718 603.906
-16.8053 37.6291 603.722
-16.5334 38.1412 603.351
-16.5287 38.4004 603.235
-15.7395 39.4552 602.964
-15.4794 39.7239 602.966
-14.7074 40.2837 603.268
-13.937 40.5813 603.63
-14.1997 40.589 603.777
-13.6851 40.8774 604.027
-15.2237 40.0045 603.145
-14.9732 40.3 603.545
-11.8632 42.2424 604.207
-11.5978 42.4979 604.004
-12.1281 42.2572 604.453
-5.5479 43.77 598.668
-5.80835 43.5034 598.689
-6.06698 43.2242 598.535
-5.80475 43.1998 598.164
-5.5458 43.4762 598.28
-6.60594 45.0227 601.344
-7.13404 44.7962 601.955
-6.87171 45.0599 601.875
-7.39743 44.815 602.241
-7.13669 45.0895 602.306
-10.0118 43.771 602.916
-9.48505 44.017 602.559
-9.22411 44.0136 602.479
-8.96349 44.0118 602.42
-10.5424 43.5389 603.469
-8.70272 44.0093 602.351
-13.4288 41.1613 604.239
-13.951 40.8939 604.303
-13.1714 41.4429 604.415
-12.911 41.7155 604.455
-11.8703 42.5406 604.644
-10.2864 43.8317 603.787
-23.054 26.6311 596.861
-23.31 26.1025 596.824
-23.3132 26.3708 596.941
-23.5699 26.1076 596.958
-23.3238 26.6477 597.251
-21.2981 29.062 598.005
-21.0439 29.3307 598.084
-21.5528 28.7943 597.945
-20.79 29.6001 598.173
-21.808 28.5274 597.9
-20.5334 29.866 598.19
-20.2758 30.1304 598.175
-22.0624 28.2598 597.838
-20.0177 30.3942 598.149
-19.7598 30.6584 598.13
-20.0228 30.6683 598.347
-22.3168 27.9924 597.778
-19.7618 30.9278 598.234
-19.501 31.1875 598.129
-22.5727 27.727 597.759
-22.825 27.4574 597.647
-23.0794 27.1907 597.596
-19.761 31.193 598.257
-19.4984 31.4499 598.097
-19.2342 31.7038 597.882
-19.4943 31.7095 598.014
-19.23 31.9631 597.796
-23.3365 26.9273 597.615
-23.5905 26.6604 597.556
-19.2265 32.2237 597.733
-18.9638 32.4795 597.56
-17.1576 34.5948 597.448
-17.9383 34.6149 597.878
-18.201 34.626 598.097
-16.9072 34.875 597.699
-17.1649 34.8765 597.753
-17.4233 34.8795 597.832
-17.9477 34.9001 598.24
-18.4674 34.6438 598.434
-16.2659 39.2031 603.249
-16.5262 38.6647 603.199
-16.5269 38.9363 603.278
-16.5312 39.2167 603.489
-16.0069 39.4747 603.293
-16.8 37.8871 603.582
-17.067 37.6335 603.823
-16.7949 38.1457 603.453
-17.33 36.8308 603.814
-17.0621 37.8928 603.704
-17.3361 37.1138 604.079
-17.3342 37.3798 604.064
-17.3296 37.6401 603.959
-16.791 38.4068 603.366
-16.7893 38.673 603.361
-15.7486 39.7485 603.37
-15.4925 40.0283 603.535
-14.4621 40.5955 603.905
-14.7272 40.6094 604.145
-13.6962 41.1823 604.58
-14.2153 40.9053 604.505
-15.2431 40.3265 603.974
-11.6067 42.8036 604.544
-12.1359 42.5574 604.915
-11.8756 42.8328 604.989
-12.9191 42.0144 604.907
-5.54298 43.177 597.813
-6.06159 42.9098 597.853
-5.80067 42.8931 597.588
-5.54005 42.8774 597.335
-5.28084 43.149 597.392
-6.8741 45.3526 602.218
-7.40086 45.1122 602.643
-7.66394 45.1271 602.878
-7.14032 45.3893 602.739
-7.40289 45.4012 602.933
-9.49456 44.3354 603.259
-9.23017 44.317 602.973
-8.96799 44.3085 602.823
-8.70613 44.3012 602.69
-9.76801 44.3941 604.091
-13.4401 41.468 604.814
-13.9627 41.2002 604.875
-14.4811 40.9205 604.761
-13.1815 41.747 604.946
-11.6138 43.1033 604.993
-12.1423 42.853 605.309
-11.8798 43.1215 605.283
-9.50656 44.6662 604.117
-9.23835 44.631 603.607
-23.5772 26.3805 597.181
-23.8309 26.114 597.122
-23.8279 25.8459 597.008
-23.8411 26.39 597.413
-24.0876 26.1154 597.173
-24.0803 25.843 596.958
-21.5676 29.08 598.397
-21.3122 29.3473 598.445
-21.8222 28.8118 598.33
-21.0569 29.6149 598.496
-20.8003 29.8809 598.513
-22.0759 28.5428 598.244
-20.5423 30.1452 598.493
-22.3312 28.276 598.202
-20.2827 30.4068 598.422
-20.5485 30.4206 598.716
-22.5869 28.0099 598.172
-20.2866 30.6792 598.583
-20.0242 30.9367 598.432
-20.2861 30.9447 598.61
-20.0213 31.1986 598.389
-22.8396 27.7404 598.068
-19.7581 31.4546 598.212
-23.0938 27.4729 598.005
-23.3503 27.2084 598.005
-23.604 26.9408 597.933
-20.0173 31.4586 598.313
-19.7543 31.7149 598.142
-19.4903 31.9694 597.938
-19.7521 31.9777 598.119
-19.4886 32.233 597.932
-23.8549 26.6703 597.796
-24.1001 26.3939 597.521
-24.1143 26.6744 597.908
-16.911 35.1501 597.886
-18.2109 34.912 598.473
-17.6916 35.1691 598.294
-17.9561 35.1836 598.569
-18.4761 34.9272 598.762
-17.1706 35.1553 598.003
-17.4296 35.1592 598.097
-18.2237 35.2038 598.94
-16.2739 39.4926 603.599
-16.7913 38.9476 603.483
-16.7976 39.2326 603.766
-16.5413 39.5112 603.914
-16.0177 39.7718 603.755
-17.0569 38.1513 603.573
-17.3244 37.8987 603.828
-17.0534 38.4133 603.499
-17.6025 36.8579 604.288
-17.6009 37.1246 604.285
-17.5973 37.3872 604.213
-17.3188 38.1564 603.684
-17.5923 37.6466 604.093
-17.5865 37.9041 603.944
-17.0526 38.6815 603.524
-17.057 38.9617 603.733
-15.7615 40.0518 603.922
-14.9973 40.6362 604.575
-13.7075 41.4885 605.145
-14.229 41.2165 605.148
-14.7482 40.9391 605.068
-16.032 40.0782 604.351
-11.3517 43.3727 604.981
-12.9266 42.3115 605.328
-11.6196 43.3985 605.375
-13.1891 42.0437 605.363
-13.4496 41.7701 605.313
-13.4564 42.0636 605.682
-5.27943 42.8602 597.062
-5.79682 42.5886 597.036
-5.53652 42.5736 596.792
-5.27711 42.5644 596.63
-5.01823 42.8365 596.699
-7.66617 45.4165 603.171
-7.92743 45.1434 603.131
-7.92962 45.432 603.412
-8.19006 45.1541 603.309
-7.40492 45.6904 603.221
-7.66861 45.7076 603.483
-8.97279 44.607 603.248
-8.70983 44.595 603.051
-9.77973 44.7222 604.91
-9.51603 44.9858 604.815
-10.0483 44.4803 605.298
-13.9738 41.5052 605.421
-14.4965 41.2362 605.47
-11.0894 43.6416 604.961
-12.1495 43.1519 605.744
-11.8862 43.4184 605.686
-11.3612 43.6828 605.567
-9.2552 45.2632 604.905
-24.3375 26.1097 597.061
-24.3258 25.8327 596.737
-24.3515 26.3895 597.439
-24.3215 25.5638 596.597
-24.5826 26.0991 596.835
-24.5698 25.8211 596.489
-21.836 29.096 598.75
-21.5811 29.3643 598.813
-22.0894 28.8261 598.649
-21.3246 29.6305 598.832
-21.0669 29.8951 598.82
-22.3444 28.5585 598.596
-20.8091 30.1598 598.808
-22.6008 28.2928 598.58
-20.5508 30.6903 598.825
-20.8147 30.4345 599.013
-22.8542 28.0237 598.488
-20.8158 30.7024 599.085
-20.5487 30.9536 598.807
-23.1087 27.7561 598.428
-20.2818 31.2046 598.529
-20.5428 31.2111 598.679
-20.2778 31.4647 598.453
-23.365 27.491 598.418
-20.0147 31.7209 598.279
-23.6188 27.2231 598.346
-23.869 26.9512 598.185
-24.1294 26.9565 598.321
-20.2746 31.7261 598.403
-20.0134 31.9852 598.285
-19.7519 32.2439 598.159
-20.0144 32.2533 598.36
-19.7575 32.5195 598.373
-24.367 26.6713 597.857
-24.599 26.3811 597.269
-24.3827 26.9536 598.277
-24.6159 26.664 597.713
-17.1789 35.4398 598.346
-17.4393 35.4462 598.482
-17.7018 35.4569 598.691
-16.2866 39.794 604.124
-17.0658 39.2522 604.098
-16.8092 39.5302 604.236
-17.3231 38.9765 603.993
-16.557 39.8193 604.539
-17.3155 38.4193 603.623
-17.5818 38.1639 603.834
-17.3167 38.6918 603.715
-17.8691 36.872 604.55
-17.8663 36.5963 604.406
-17.8645 37.1326 604.444
-17.8596 37.3924 604.328
-17.8541 37.6509 604.193
-17.5793 38.4285 603.799
-17.849 37.9102 604.071
-17.8451 38.1719 603.991
-15.27 40.6692 605.099
-15.0193 40.9678 605.524
-13.7168 41.7893 605.624
-14.2409 41.5233 605.718
-14.7663 41.2613 605.871
-10.834 43.9387 605.329
-13.1965 42.3403 605.774
-12.938 42.6219 605.932
-13.4635 42.3588 606.071
-11.6274 43.7015 605.859
-13.7241 42.0842 606.013
-13.9836 41.8067 605.909
-5.01593 42.5395 596.248
-5.27273 42.2524 595.965
-5.01303 42.2377 595.723
-8.19315 45.4471 603.647
-7.93267 45.7259 603.759
-8.19768 45.7484 604.092
-9.78418 45.0178 605.279
-9.52067 45.2831 605.206
-10.0523 44.7728 605.628
-9.78681 45.3051 605.535
-9.25928 45.5588 605.271
-8.99429 45.541 604.999
-10.0535 45.0535 605.794
-10.5822 44.2528 605.925
-10.3232 44.5386 606.126
-14.5108 41.5493 606.13
-11.1033 43.9705 605.801
-12.1571 43.4527 606.199
-12.4202 43.1851 606.243
-12.6798 42.9053 606.115
-11.8946 43.7227 606.188
-11.3702 43.9919 606.13
-9.52432 45.576 605.535
-8.73224 45.8136 605.023
-8.99908 45.8412 605.423
-24.8476 26.374 597.126
-24.8309 26.0919 596.689
-24.5632 25.5499 596.292
-24.8645 26.6568 597.568
-24.8164 25.8125 596.307
-24.8084 25.5401 596.079
-25.0686 25.8099 596.263
-22.1038 29.111 599.079
-21.849 29.3796 599.148
-22.3594 28.8436 599.035
-21.5929 29.6466 599.181
-21.334 29.9099 599.138
-22.6145 28.5759 598.981
-21.0755 30.1738 599.109
-22.8685 28.3071 598.902
-21.081 30.4482 599.307
-23.1232 28.0393 598.842
-20.8113 30.9623 598.999
-21.0806 30.7141 599.336
-23.3804 27.7748 598.851
-21.0755 30.9731 599.233
-20.8043 31.2183 598.84
-23.6345 27.5067 598.78
-20.5379 31.4699 598.577
-20.7988 31.4764 598.725
-20.535 31.7319 598.536
-20.2737 31.9911 598.42
-23.8848 27.2346 598.619
-24.1446 27.2389 598.733
-24.3968 27.2346 598.66
-24.6307 26.9452 598.109
-20.5338 31.9964 598.545
-20.2743 32.2584 598.481
-20.0183 32.5261 598.519
-20.2751 32.5261 598.545
-19.765 32.7985 598.645
-20.0231 32.8004 598.706
-24.8796 26.9379 597.966
-25.1008 26.372 597.098
-24.6448 27.2259 598.487
-24.8938 27.2184 598.343
-25.1172 26.6539 597.523
-17.3353 39.2743 604.47
-17.5922 38.9971 604.344
-17.0802 39.5559 604.661
-17.5824 38.7053 603.957
-16.8326 39.8561 605.13
-17.845 38.4417 604.037
-18.1326 36.8796 604.702
-18.1277 37.1397 604.59
-18.1357 36.6156 604.755
-18.1217 37.3975 604.44
-18.3959 36.3464 604.748
-18.4001 36.6247 604.934
-18.1163 37.6563 604.31
-18.1116 37.9165 604.202
-18.1102 38.1836 604.205
-18.1133 38.46 604.356
-15.2918 40.9994 606.025
-15.0386 41.2927 606.363
-14.2518 41.8278 606.248
-14.7818 41.5772 606.57
-13.2055 42.6422 606.255
-12.949 42.9317 606.521
-13.4728 42.6612 606.558
-13.7314 42.3796 606.402
-13.9921 42.1049 606.343
-11.637 44.0117 606.438
-8.47187 46.0958 605.172
-10.0555 45.3377 606.006
-10.3254 44.8232 606.345
-9.79124 45.6011 605.903
-9.26457 45.8607 605.715
-10.3262 45.1019 606.48
-10.8496 44.2767 606.286
-10.5926 44.571 606.602
-11.1148 44.2906 606.511
-14.5216 41.8528 606.644
-12.4274 43.4838 606.666
-12.165 43.7551 606.671
-12.6911 43.2172 606.728
-11.9037 44.0303 606.728
-11.3799 44.3039 606.727
-9.53097 45.8836 606.053
-8.73952 46.1281 605.632
-9.00501 46.1477 605.924
-25.3585 26.3747 597.18
-25.3418 26.0931 596.752
-24.8124 25.2801 596.14
-25.0582 25.5352 595.983
-25.0596 25.2726 595.981
-25.3753 26.6569 597.608
-25.1322 26.9347 597.915
-25.3266 25.8132 596.359
-25.3142 25.5366 596.033
-25.3125 25.271 595.958
-25.5743 25.5422 596.18
-22.3746 29.1295 599.483
-22.1176 29.3954 599.493
-22.6301 28.8617 599.433
-21.8608 29.6617 599.509
-21.6017 29.9251 599.466
-22.8821 28.5899 599.296
-21.3424 30.1881 599.415
-23.1378 28.323 599.259
-21.3477 30.4621 599.605
-23.3951 28.0581 599.264
-21.3463 30.7267 599.607
-23.65 27.7905 599.209
-21.0675 31.2278 599.047
-21.3403 30.9846 599.479
-21.3323 31.2395 599.297
-23.9 27.5175 599.036
-21.0621 31.4862 598.937
-20.7962 31.7388 598.692
-24.1587 27.5204 599.119
-21.0599 31.7493 598.916
-20.7956 32.0043 598.718
-20.5336 32.2625 598.581
-24.4101 27.515 599.022
-24.9081 27.4994 598.721
-20.7967 32.2724 598.79
-20.5331 32.5282 598.611
-20.2774 32.7963 598.658
-20.5346 32.797 598.695
-19.7718 33.0765 598.895
-19.512 33.0718 598.783
-20.0282 33.0755 598.903
-20.2807 33.0684 598.8
-25.391 26.9383 598.013
-25.606 26.1025 596.987
-25.6233 26.3847 597.424
-25.1622 27.4974 598.699
-25.4066 27.2199 598.415
-17.6084 39.3036 604.952
-17.8625 39.0202 604.733
-17.8509 38.7245 604.287
-18.1199 38.7444 604.628
-17.3562 39.5923 605.249
-17.6345 39.6329 605.9
-18.3962 36.8872 604.857
-18.3908 37.1463 604.726
-18.3843 37.4033 604.564
-18.6644 36.6334 605.106
-18.3792 37.6629 604.445
-18.6632 36.3609 605.019
-18.6462 36.0579 604.418
-18.9165 36.0783 604.789
-18.6598 36.8945 605.006
-18.6534 37.1519 604.847
-18.3759 37.9261 604.386
-18.3761 38.1964 604.439
-18.381 38.4768 604.65
-15.5653 41.0326 606.548
-15.8182 40.7394 606.208
-15.3098 41.32 606.797
-15.0519 41.6018 606.961
-14.2605 42.126 606.681
-14.7923 41.8795 607.063
-13.2156 42.9481 606.787
-12.9595 43.2399 607.08
-13.4827 42.9659 607.072
-13.7408 42.6816 606.882
-14.0003 42.4027 606.766
-11.6449 44.3161 606.928
-8.4808 46.4212 605.917
-8.74647 46.4416 606.219
-10.0618 45.6417 606.477
-10.5969 44.8643 606.935
-10.3287 45.3883 606.717
-9.80002 45.9178 606.54
-9.27212 46.1743 606.308
-10.6004 45.1546 607.223
-10.8588 44.589 606.882
-11.1234 44.5999 607.064
-14.5305 42.1513 607.078
-12.7003 43.5226 607.242
-12.1745 44.0634 607.218
-11.9122 44.3363 607.24
-11.3872 44.6068 607.193
-9.54105 46.2083 606.791
-9.01282 46.4643 606.552
-25.8751 26.1168 597.332
-25.5895 25.8215 596.569
-25.8558 25.8331 596.853
-25.5681 25.2721 596.001
-25.5792 25.0191 596.226
-25.6412 26.6679 597.875
-25.8946 26.4012 597.816
-25.8396 25.5528 596.445
-25.8285 25.2779 596.155
-22.644 29.1459 599.842
-22.3878 29.4131 599.875
-22.8969 28.8747 599.724
-22.129 29.677 599.842
-21.8697 29.9403 599.794
-23.1507 28.6049 599.632
-21.6107 30.204 599.755
-23.4083 28.34 599.64
-21.615 30.4768 599.917
-23.664 28.073 599.603
-21.6134 30.7412 599.914
-23.9147 27.8003 599.442
-21.6065 30.998 599.763
-24.1728 27.8023 599.505
-21.3271 31.4983 599.191
-21.5987 31.2533 599.586
-21.5929 31.5115 599.466
-21.3238 31.76 599.141
-21.06 32.016 598.961
-24.4245 27.7969 599.41
-24.6726 27.7878 599.233
-21.3235 32.026 599.174
-21.0614 32.2846 599.042
-20.7981 32.541 598.872
-24.9224 27.7806 599.099
-25.4216 27.5013 598.803
-25.1769 27.779 599.084
-21.0642 32.5554 599.162
-19.777 33.3521 599.097
-19.5181 33.3491 599.017
-20.0323 33.3492 599.072
-20.2881 33.3471 599.061
-19.5228 33.6241 599.206
-25.6587 26.9511 598.317
-25.9129 26.6848 598.272
-26.1282 25.8504 597.271
-26.1484 26.1351 597.768
-25.6745 27.2329 598.719
-25.4376 27.7841 599.214
-25.9292 26.9667 598.682
-17.8819 39.3331 605.437
-18.1332 39.0434 605.123
-18.3898 38.7655 604.988
-18.6489 38.4934 604.943
-18.1603 39.3726 606.077
-18.4079 39.0743 605.633
-18.6851 39.1097 606.213
-17.1421 40.2426 606.959
-18.6479 37.4109 604.717
-18.643 37.6711 604.607
-18.9277 36.6399 605.243
-18.9226 36.9 605.127
-18.9275 36.3693 605.188
-18.6405 37.936 604.574
-19.1813 36.0879 604.979
-19.4216 35.7822 604.356
-19.1908 36.3758 605.324
-18.916 37.1572 604.964
-18.91 37.4155 604.821
-19.1783 37.1621 605.074
-18.642 38.2092 604.672
-15.8399 41.0677 607.099
-16.0933 40.7755 606.777
-15.5814 41.3473 607.232
-16.341 40.4703 606.256
-16.6146 40.5014 606.752
-15.3216 41.6244 607.323
-15.0612 41.9 607.394
-14.2698 42.4265 607.141
-14.8001 42.1744 607.444
-13.226 43.2558 607.337
-13.7519 42.9894 607.438
-12.9705 43.5508 607.668
-13.494 43.2757 607.65
-14.0102 42.7056 607.257
-11.652 44.6176 607.375
-8.48773 46.7364 606.522
-8.75489 46.7634 606.908
-9.28117 46.4959 607
-10.0719 45.9634 607.179
-10.3362 45.6968 607.245
-10.8656 44.8922 607.347
-11.1306 44.9038 607.539
-9.81054 46.2432 607.285
-10.6054 45.4516 607.598
-10.8718 45.1934 607.781
-14.5397 42.4511 607.526
-12.7109 43.8331 607.821
-12.4476 44.1031 607.8
-12.1837 44.3713 607.753
-11.9209 44.6437 607.764
-11.3931 44.9051 607.592
-9.02299 46.7937 607.338
-26.401 25.8679 597.692
-26.3792 25.5822 597.167
-26.1088 25.5671 596.796
-25.8316 25.017 596.194
-26.0896 25.0203 596.289
-26.0932 25.2878 596.405
-26.167 26.4185 598.226
-26.4196 26.1509 598.148
-22.9109 29.1587 600.128
-22.6564 29.4282 600.207
-23.1656 28.8896 600.056
-22.3983 29.6935 600.197
-22.1386 29.9565 600.142
-23.4226 28.6235 600.044
-21.8793 30.2202 600.099
-23.677 28.3545 599.969
-23.9284 28.0823 599.822
-21.885 30.4948 600.295
-21.8841 30.7604 600.312
-24.1856 28.0831 599.86
-21.8779 31.0185 600.183
-21.8696 31.2732 599.993
-24.4374 28.0776 599.764
-24.6858 28.0685 599.59
-21.5883 31.7713 599.38
-21.8642 31.5322 599.885
-21.5853 32.0333 599.336
-21.8612 31.7946 599.844
-21.3251 32.295 599.262
-25.1918 28.0611 599.474
-21.5873 32.3029 599.434
-25.689 27.5137 599.093
-25.943 27.2463 599.034
-25.7059 27.7973 599.52
-21.0745 33.1049 599.541
-19.7819 33.6273 599.29
-20.0376 33.6248 599.272
-20.2975 33.6295 599.383
-19.7887 33.9061 599.541
-20.0446 33.9037 599.527
-26.1829 26.6996 598.623
-26.4345 26.4306 598.518
-26.6491 25.5967 597.521
-26.6681 25.8796 597.981
-26.1973 26.9795 598.985
-25.4546 28.0683 599.648
-25.9595 27.5291 599.448
-26.4493 26.7105 598.887
-18.6617 38.7902 605.405
-18.9191 38.5143 605.302
-18.9089 38.2235 604.929
-18.9055 37.9466 604.773
-18.9365 38.8203 605.906
-18.9639 39.1475 606.831
-19.2127 38.8525 606.439
-19.1915 38.5392 605.723
-19.4668 38.5693 606.227
-16.8903 40.5367 607.315
-17.4174 40.2756 607.488
-17.1665 40.5719 607.874
-16.3645 40.8006 607.183
-16.6359 40.8255 607.585
-17.6923 40.3068 607.99
-18.9061 37.6777 604.743
-19.1905 36.6454 605.364
-19.1851 36.905 605.238
-19.4536 36.6513 605.491
-19.45 36.1045 605.286
-19.7107 35.836 605.294
-19.457 36.3875 605.549
-19.448 36.9108 605.362
-19.1731 37.422 604.956
-19.1702 37.6863 604.911
-19.4421 37.1695 605.223
-19.4383 37.4322 605.152
-16.1113 41.0934 607.511
-15.8535 41.3755 607.678
-15.5919 41.648 607.701
-15.3308 41.9221 607.747
-15.0708 42.1999 607.844
-14.2808 42.7326 607.674
-14.8104 42.4767 607.926
-13.2374 43.5668 607.926
-14.0219 43.0149 607.832
-13.7633 43.2988 608.008
-12.9809 43.86 608.227
-13.5041 43.5821 608.174
-11.6583 44.9168 607.784
-8.49918 47.0771 607.449
-8.76633 47.1021 607.807
-9.29305 46.8324 607.876
-11.137 45.205 607.971
-11.4 45.2074 608.039
-10.0877 46.3118 608.22
-10.6148 45.768 608.226
-10.8794 45.5008 608.291
-14.551 42.7574 608.061
