4.41236 -50.7764 650.342
4.69519 -50.781 650.315
4.41279 -50.4728 650.159
4.41271 -51.0888 650.637
4.69509 -50.4727 650.071
4.69567 -51.0935 650.61
4.97794 -50.7845 650.273
4.41353 -50.1731 650.024
4.97864 -51.0981 650.582
4.97773 -50.4762 650.03
5.26055 -50.7867 650.216
4.69557 -50.1709 649.909
4.97814 -50.1743 649.866
4.4137 -51.4091 651.028
4.69678 -51.4134 650.995
4.97966 -51.4153 650.933
5.26144 -51.1007 650.53
5.26262 -51.418 650.881
5.54488 -51.1091 650.549
4.69839 -51.7392 651.451
4.98112 -51.7373 651.341
5.26371 -51.7347 651.222
5.5453 -51.4179 650.794
5.54655 -51.7348 651.136
5.82934 -51.4302 650.863
4.69914 -52.0556 651.784
4.98203 -52.0541 651.678
4.41619 -52.0569 651.886
5.26493 -52.0531 651.579
5.54802 -52.054 651.505
5.83006 -51.741 651.128
5.83132 -52.057 651.456
4.6996 -52.3693 652.079
4.98264 -52.368 651.977
4.41646 -52.3699 652.173
5.2658 -52.3682 651.893
4.13294 -52.3661 652.211
3.84919 -52.3587 652.204
4.69998 -52.6824 652.363
5.54907 -52.3696 651.824
5.8323 -52.3707 651.751
6.11626 -52.3781 651.758
4.98332 -52.6828 652.282
5.26682 -52.6852 652.226
4.13269 -52.6742 652.433
5.55024 -52.6866 652.157
3.84898 -52.6687 652.451
3.56584 -52.3563 652.261
3.56582 -52.6707 652.562
3.28259 -52.3555 652.337
3.84862 -52.9767 652.671
4.70034 -52.9955 652.645
4.98413 -52.9996 652.609
4.41639 -52.9892 652.653
5.83356 -52.6871 652.078
6.11781 -52.696 652.102
6.11894 -53.0105 652.4
5.26787 -53.0028 652.563
5.5515 -53.0048 652.502
4.13227 -52.9804 652.63
5.83504 -53.0061 652.432
3.56543 -52.9798 652.794
3.28295 -52.6782 652.741
3.28258 -52.9894 652.998
3.84738 -53.2731 652.745
4.13124 -53.279 652.731
3.56411 -53.2753 652.859
4.70052 -53.3068 652.902
4.41581 -53.2928 652.815
4.98509 -53.3179 652.952
5.26905 -53.3221 652.917
6.12106 -53.3339 652.803
5.83693 -53.3289 652.828
5.55293 -53.3248 652.864
3.28139 -53.2874 653.092
3.56239 -53.5648 652.847
2.99883 -52.9849 653.03
2.99841 -53.2973 653.3
3.27966 -53.5768 653.079
3.84556 -53.5612 652.718
4.12989 -53.5733 652.78
4.41476 -53.5907 652.906
4.69998 -53.6102 653.058
4.98519 -53.6275 653.183
5.26983 -53.6374 653.219
5.55411 -53.643 653.201
5.83853 -53.6496 653.195
6.12409 -53.6657 653.306
2.99702 -53.5928 653.36
3.27827 -53.8715 653.132
3.561 -53.8594 652.899
3.84424 -53.8563 652.776
2.9954 -53.8841 653.37
4.12856 -53.8682 652.835
4.69909 -53.9097 653.167
4.98462 -53.93 653.327
5.26983 -53.9451 653.425
5.55462 -53.9549 653.457
5.83983 -53.9677 653.527
6.12629 -53.9907 653.719
3.27848 -54.1931 653.508
2.99545 -54.2056 653.744
3.56134 -54.1802 653.266
3.84468 -54.1764 653.135
4.12852 -54.18 653.093
4.69875 -54.2155 653.35
4.98411 -54.2334 653.48
5.26964 -54.2513 653.61
