-2.19717 59.3119 624.733
-1.92435 59.579 624.583
-2.19672 59.6202 625.055
-1.9247 59.2632 624.18
-1.92417 59.9003 625.038
-1.65277 59.5527 624.265
-1.6523 59.8704 624.685
-2.47245 59.102 625.491
-2.47147 59.3942 625.642
-2.19688 59.9454 625.551
-1.38073 59.8432 624.359
-1.37995 60.1559 624.725
-1.65178 60.1869 625.088
-1.92424 60.2298 625.575
-1.6528 59.22 623.684
-1.38127 59.5209 623.89
-1.1095 59.8227 624.104
-1.37934 60.4761 625.164
-1.10858 60.1357 624.474
-2.74577 58.8362 625.661
-2.74585 59.1498 626.039
-2.47113 59.7023 625.957
-3.01826 58.8611 625.967
-3.01844 59.1738 626.334
-2.74607 59.4671 626.451
-1.65142 60.5094 625.55
-1.92422 60.5571 626.085
-0.837534 60.1264 624.336
-0.838573 59.8095 623.926
-1.10766 60.4491 624.843
-0.836399 60.4364 624.671
-1.37877 60.7987 625.624
-1.65112 60.8349 626.038
-1.11003 59.4883 623.507
-1.3811 59.1685 623.1
-0.839131 59.4597 623.167
-0.567962 59.8217 624.012
-0.566708 60.1334 624.367
-1.10681 60.7677 625.263
-0.83535 60.7527 625.067
-0.565364 60.4362 624.627
-3.28985 58.5599 625.761
-3.29033 58.8746 626.152
-3.56125 58.5635 625.841
-3.29082 59.1902 626.548
-2.47189 60.0371 626.549
-3.56192 58.8786 626.236
-3.0191 59.4963 626.799
-3.56277 59.1973 626.665
-2.74662 59.7918 626.938
-3.29215 59.5212 627.104
-1.10609 61.0936 625.754
-1.92361 60.866 626.4
-1.65059 61.152 626.437
-1.37814 61.1192 626.058
-0.297374 59.8583 624.352
-0.295913 60.1609 624.611
-0.564077 60.7471 624.969
-0.294432 60.4598 624.829
-0.834359 61.0736 625.507
-1.10527 61.4141 626.186
-0.562863 61.064 625.367
-0.29295 60.76 625.059
-3.83247 58.564 625.887
-3.83316 58.8769 626.258
-4.1035 58.5622 625.909
-4.10433 58.8746 626.275
-3.83407 59.1937 626.668
-2.47332 60.3895 627.317
-2.19695 60.9128 626.924
-3.56451 59.5311 627.249
-3.02058 59.8354 627.436
-4.10544 59.1916 626.687
-2.74771 60.1288 627.548
-3.83609 59.5279 627.257
-3.29429 59.8673 627.812
-0.833381 61.397 625.97
-0.561674 61.3869 625.825
-1.92313 61.1796 626.761
-1.37753 61.441 626.502
-1.65015 61.4737 626.878
-0.0232673 60.4964 625.166
-0.29149 61.0666 625.352
-0.0216849 60.7857 625.281
-0.290083 61.3827 625.74
-0.832341 61.7155 626.377
-1.1045 61.7381 626.649
-0.560457 61.7056 626.235
-0.0201047 61.0803 625.451
-2.19667 61.228 627.299
-2.74879 60.4663 628.157
-3.02233 60.1805 628.128
-1.92274 61.4964 627.151
-2.19608 61.5348 627.584
-4.1083 59.5344 627.366
-3.56711 59.88 627.986
-3.83971 59.8875 628.107
-3.29622 60.2104 628.482
-0.288687 61.7011 626.148
-0.0185263 61.3851 625.722
-1.37702 61.768 626.995
-1.64971 61.7952 627.313
0.249847 60.8139 625.531
0.251449 61.0946 625.555
-0.0169445 61.699 626.084
0.253091 61.3857 625.687
-0.559217 62.0226 626.624
-0.831353 62.0389 626.831
-0.287267 62.0167 626.522
-1.1037 62.0604 627.091
0.523063 61.1022 625.592
-1.92259 61.8213 627.62
-2.19574 61.8491 627.944
-2.74898 60.7846 628.562
-3.02312 60.5073 628.624
-2.47397 61.0411 628.286
-2.74826 61.0836 628.765
-3.02288 60.8137 628.905
-3.56993 60.2333 628.763
-2.47063 61.5955 628.245
-2.47243 61.3216 628.299
-1.64935 62.1203 627.78
-1.92247 62.1479 628.101
-4.11398 59.9185 628.473
-3.29726 60.5378 628.982
-3.8437 60.2539 629.019
-0.0153663 62.0106 626.418
0.254792 61.6928 625.979
0.524645 61.3802 625.589
-1.37646 62.0928 627.46
0.256535 62.0086 626.357
0.526421 61.6805 625.812
-0.285861 62.3341 626.913
-0.558006 62.3426 627.04
-0.830315 62.3596 627.254
-0.0137811 62.3253 626.782
-1.10288 62.3826 627.527
-2.46952 61.8869 628.369
-2.19563 62.1699 628.365
-3.02184 61.1042 629.019
-2.74677 61.365 628.786
-3.29678 60.8379 629.196
-2.74478 61.6353 628.693
-3.02032 61.3849 629.031
-3.29551 61.1232 629.257
-3.57101 60.5579 629.233
-4.11811 60.2814 629.348
-2.74331 61.9175 628.723
-1.37578 62.413 627.875
-1.649 62.4462 628.251
-1.92226 62.4719 628.553
-2.46911 62.1959 628.671
-4.39165 59.9925 629.291
-3.57036 60.8532 629.397
-3.84484 60.5763 629.467
-4.1184 60.5884 629.634
0.258269 62.3201 626.687
0.52832 61.9951 626.178
-1.10191 62.6981 627.892
0.530211 62.3075 626.519
0.801974 62.2875 626.275
-0.0121941 62.6353 627.095
-0.284426 62.647 627.255
0.259981 62.6288 626.987
-0.556743 62.6592 627.419
-0.829231 62.676 627.629
-2.19572 62.4969 628.846
-3.29366 61.398 629.208
-3.01851 61.66 628.988
-3.56874 61.1324 629.393
-3.01733 61.9477 629.071
-3.29219 61.6797 629.23
-3.56718 61.4122 629.396
-3.84375 60.8638 629.549
-4.11698 60.8708 629.662
-2.74289 62.2234 628.991
-1.37503 62.7309 628.263
-1.10103 63.0179 628.299
-1.64847 62.7659 628.656
-1.37427 63.0482 628.643
-1.92213 62.7991 629.031
-2.46925 62.5188 629.108
-4.39574 60.35 630.105
-3.84203 61.1413 629.526
-4.11791 61.1877 630.046
0.532049 62.6159 626.815
0.803963 62.5979 626.593
-0.828113 62.9914 627.991
-0.555436 62.9711 627.747
0.805924 62.9052 626.878
0.26167 62.9314 627.224
-0.0106056 62.9441 627.392
0.533869 62.9208 627.075
-0.282971 62.9553 627.547
-2.19604 62.8308 629.392
-2.74323 62.5469 629.434
-3.56624 61.7033 629.513
-3.29149 61.976 629.4
-3.84099 61.4297 629.617
-3.01699 62.2531 629.334
-1.10005 63.3324 628.648
-0.826918 63.3014 628.297
-0.554135 63.2833 628.075
-1.64805 63.0904 629.106
-1.37364 63.372 629.083
-1.92208 63.1292 629.536
-2.46961 62.848 629.606
-3.84133 61.7403 629.933
1.07985 63.1918 626.912
-0.281483 63.2602 627.803
-0.0090246 63.2503 627.662
0.807956 63.218 627.214
0.535743 63.2337 627.413
0.263393 63.2417 627.535
-2.19606 63.1571 629.856
-2.74387 62.8775 629.944
-3.01783 62.5832 629.841
-3.29242 62.3031 629.881
-3.56668 62.0181 629.87
-0.552777 63.5883 628.329
-0.280009 63.566 628.066
-0.0074228 63.5591 627.955
-1.64761 63.4142 629.545
-1.37306 63.6984 629.545
-1.09826 63.9721 629.442
-1.92179 63.452 629.962
-2.4698 63.1737 630.064
1.08221 63.5152 627.351
0.810058 63.537 627.609
0.265124 63.5529 627.851
0.537649 63.5492 627.772
-2.19558 63.4694 630.177
-2.4696 63.489 630.415
-2.74415 63.2005 630.374
-3.01907 62.9221 630.433
-3.29467 62.656 630.617
-0.278588 63.884 628.446
-0.005839 63.8677 628.244
0.266861 63.868 628.203
-1.64701 63.7326 629.926
-1.37224 64.0147 629.903
-1.09752 64.3023 629.935
-1.64608 64.0384 630.18
-1.37124 64.3224 630.175
-1.92097 63.7574 630.214
-2.19489 63.7755 630.435
1.08449 63.8349 627.75
0.812154 63.8555 627.995
0.539538 63.8636 628.118
-1.92015 64.0635 630.469
-2.74423 63.5195 630.76
-2.46931 63.8032 630.751
-3.01973 63.2493 630.903
-3.29585 62.9893 631.149
-3.56954 62.3756 630.656
-3.57261 62.7376 631.48
-0.0042507 64.2027 628.788
0.268631 64.186 628.582
0.541452 64.1808 628.488
-1.64532 64.3515 630.502
-0.823038 64.6141 630.201
-1.09669 64.6276 630.376
-1.37046 64.6413 630.553
-2.19432 64.086 630.734
1.08682 64.1576 628.175
0.814269 64.1756 628.394
-1.91949 64.3751 630.777
-2.74373 63.825 631.01
-3.01914 63.5508 631.114
-3.01782 63.8369 631.171
-2.4688 64.1114 631.026
-2.74288 64.1228 631.182
-3.29538 63.2913 631.365
-3.29382 63.5723 631.371
-3.57323 63.0574 631.874
-3.57166 63.3385 631.878
-3.5688 63.5966 631.654
0.270425 64.513 629.044
0.543372 64.4991 628.866
0.81636 64.4942 628.775
1.08912 64.4792 628.585
-1.64469 64.6694 630.87
-0.548273 64.9293 630.499
-0.822037 64.9423 630.668
-1.09576 64.9472 630.758
-0.273104 65.218 630.536
-1.36973 64.9629 630.954
-2.1941 64.4064 631.126
-1.9193 64.703 631.24
-3.01637 64.1206 631.202
-3.29183 63.8454 631.297
-3.29008 64.1228 631.267
-3.01517 64.4094 631.284
-2.46835 64.4221 631.323
-2.74186 64.4171 631.317
0.545344 64.8229 629.293
0.818433 64.8114 629.138
1.09145 64.8017 629.001
-1.64424 64.9957 631.315
-0.547101 65.2594 630.979
-0.820925 65.261 631.038
-1.09477 65.2641 631.111
-0.271737 65.555 631.08
0.277601 65.821 630.854
-0.545796 65.5756 631.323
-1.36896 65.2829 631.336
-2.19397 64.7301 631.548
-2.46775 64.7286 631.577
-1.91925 65.0362 631.753
-3.01452 64.7102 631.483
-2.74113 64.7179 631.515
0.82055 65.133 629.542
0.547391 65.1566 629.813
1.09371 65.1214 629.386
1.36909 65.4219 629.54
-1.64367 65.3169 631.708
-1.36812 65.5996 631.683
-0.819781 65.5775 631.383
-1.09375 65.5796 631.447
0.0037593 65.8458 631.135
-0.270335 65.8828 631.532
-0.544477 65.8917 631.661
0.55129 65.7985 630.595
0.55323 66.1198 630.983
0.27939 66.1424 631.243
0.826951 66.1007 630.758
0.824813 65.7779 630.353
0.549327 65.4768 630.198
0.0053613 66.1716 631.565
-0.818598 65.8927 631.714
-2.19384 65.0545 631.973
-2.74104 65.0341 631.861
-1.91903 65.3641 632.207
-1.64319 65.6425 632.14
-3.01471 65.0294 631.859
1.09603 65.4437 629.793
0.822716 65.4575 629.969
1.09827 65.7618 630.156
1.37165 65.7481 629.982
-1.36744 65.9251 632.112
-1.09279 65.8987 631.815
-0.268896 66.2039 631.916
-0.543204 66.2119 632.037
-0.81749 66.2133 632.093
1.10057 66.0844 630.559
0.829073 66.4226 631.15
0.555232 66.4494 631.449
1.10282 66.4039 630.929
0.281164 66.4647 631.637
1.37656 66.3911 630.764
1.37415 66.0716 630.394
0.0069711 66.4892 631.913
-2.19381 65.3823 632.427
-2.46814 65.3848 632.494
-2.74217 65.3801 632.492
-1.91882 65.6926 632.665
-1.64289 65.9756 632.639
-1.09195 66.2257 632.255
-1.36691 66.2577 632.604
-0.267441 66.5222 632.271
-0.541952 66.5361 632.446
-0.816483 66.5432 632.558
1.10517 66.7305 631.363
0.831251 66.7495 631.587
1.37903 66.7134 631.158
0.282938 66.7873 632.032
0.0085669 66.8002 632.197
-2.19414 65.7207 632.979
-2.46926 65.7382 633.191
-1.91858 66.0204 633.112
-1.64255 66.3078 633.126
-1.09126 66.5627 632.787
-1.36643 66.5939 633.127
-0.265986 66.8402 632.619
-0.540733 66.8646 632.894
-0.815509 66.8761 633.046
1.38367 67.3449 631.813
1.65782 67.334 631.666
0.010178 67.1105 632.472
-2.19446 66.0601 633.536
-2.7448 65.7625 633.468
-2.47026 66.0896 633.862
-1.91832 66.3484 633.557
-1.64207 66.6353 633.564
-1.09052 66.8972 633.29
-1.36589 66.9278 633.623
-0.264514 67.155 632.934
0.0117885 67.4217 632.752
-0.53939 67.18 633.214
-0.814437 67.2011 633.456
1.38604 67.6634 632.162
1.66047 67.6579 632.066
1.66344 67.9944 632.58
1.3889 68.0061 632.733
-2.19438 66.3876 633.975
-1.91787 66.6701 633.938
-2.74664 66.1268 634.263
-2.47081 66.429 634.414
-2.19426 66.7149 634.408
-1.64151 66.9589 633.962
-1.08963 67.2231 633.708
-1.36523 67.2557 634.059
-0.263052 67.4736 633.283
-0.538073 67.4979 633.555
0.0134097 67.7714 633.39
-0.813307 67.5227 633.831
1.66656 68.338 633.155
1.39185 68.3532 633.34
1.94687 68.9744 633.78
1.67201 68.9934 633.999
-1.91776 67.0042 634.434
-2.74799 66.4802 634.946
-2.47188 66.7833 635.102
-2.19493 67.0661 635.064
-1.64122 67.2949 634.473
-1.08876 67.5505 634.137
-1.36468 67.59 634.551
-0.261619 67.8033 633.732
-0.53681 67.8223 633.954
0.0150328 68.1243 634.053
-0.260215 68.1381 634.226
-0.812274 67.8527 634.282
1.39687 69.0059 634.158
1.94948 69.2919 634.104
1.67438 69.3071 634.288
1.39911 69.3188 634.439
1.95222 69.614 634.468
1.67689 69.6262 634.623
1.12389 69.3394 634.672
-1.91817 67.3569 635.101
-2.19639 67.4425 635.952
-1.64113 67.6395 635.06
-1.08803 67.8869 634.645
-1.36421 67.9289 635.082
-0.535608 68.1557 634.433
0.29196 68.4257 634.188
0.0166692 68.4605 634.555
-0.258787 68.4655 634.646
-0.811281 68.1863 634.762
0.846479 69.0422 634.58
0.84876 69.3797 635.085
1.12649 69.6834 635.234
0.571154 69.069 634.871
0.573082 69.39 635.224
-1.64121 67.9916 635.713
-1.91966 68.0885 636.662
-1.64113 68.338 636.307
-1.36397 68.2794 635.717
-1.08739 68.2302 635.215
-0.810333 68.5248 635.283
-0.534405 68.4897 634.914
0.569233 68.749 634.524
0.293806 68.7638 634.705
0.0182843 68.7737 634.841
-0.257313 68.7872 635.01
0.295564 69.0782 635
0.850894 69.7041 635.467
0.297337 69.3976 635.338
0.574967 69.7056 635.525
1.12869 70.0016 635.556
0.852975 70.0253 635.817
0.0199004 69.0881 635.135
0.021523 69.4149 635.541
-1.08681 68.5775 635.816
-1.36383 68.6369 636.411
-1.64167 68.7111 637.143
-1.92035 68.4538 637.429
-2.19904 68.1899 637.656
-1.36374 68.9964 637.118
-1.08625 68.9271 636.434
-0.809389 68.864 635.807
-0.533131 68.816 635.32
-0.255854 69.1098 635.379
0.299122 69.7225 635.724
0.576951 70.0323 635.925
0.85535 70.3708 636.383
0.300972 70.0583 636.206
0.023161 69.7504 636.023
-0.254437 69.4448 635.859
-0.531875 69.1457 635.753
-0.808566 69.2145 636.43
-1.64189 69.0713 637.854
-1.08571 69.2787 637.066
-1.92074 68.8086 638.092
-2.47796 67.9284 637.905
-2.19978 68.5465 638.336
-1.3636 69.3541 637.803
-2.47858 68.2738 638.484
-2.75793 68.0121 638.735
-0.80781 69.5706 637.1
-0.530768 69.4943 636.357
0.579202 70.3921 636.619
0.0248003 70.1033 636.658
0.85838 70.7698 637.427
-0.253052 69.7908 636.435
-1.64196 69.4262 638.51
-1.08522 69.6332 637.718
-1.92076 69.151 638.635
-1.36328 69.7043 638.414
-0.529834 69.8656 637.163
-2.19989 68.8845 638.84
-2.47903 68.6147 639.017
-2.75803 68.3383 639.131
-0.807057 69.9291 637.786
-1.08477 69.9918 638.402
-2.47979 68.9647 639.629
-0.251757 70.1647 637.261
0.581705 70.7836 637.595
1.13794 71.1246 638.02
0.305043 70.8203 637.971
0.0264479 70.4859 637.558
0.861165 71.1497 638.29
1.96725 71.0531 637.244
0.584137 71.1666 638.487
-1.64227 69.7915 639.257
-1.9211 69.506 639.29
-0.528889 70.24 637.989
-2.20022 69.2294 639.404
-0.806392 70.2952 638.535
-1.36324 70.0692 639.154
-1.08448 70.3618 639.186
-0.527929 70.6105 638.775
-2.20114 69.5941 640.144
-1.92193 69.879 640.103
-0.250497 70.548 638.164
0.0281199 70.8692 638.456
1.69467 71.4472 638.276
1.41795 71.4742 638.562
1.14088 71.4914 638.761
1.97138 71.4274 638.054
0.307086 71.2015 638.845
0.863611 71.5017 638.898
2.24347 71.0329 637.017
2.24814 71.4132 637.882
0.586342 71.5219 639.124
-1.64287 70.1708 640.125
-0.80573 70.6639 639.303
-1.36328 70.4391 639.933
-1.08399 70.7201 639.856
-0.526857 70.9687 639.443
-0.249211 70.9249 639.003
-2.20207 69.9594 640.884
-2.48206 69.6877 641.05
-1.92251 70.2438 640.836
-1.64283 70.5236 640.745
0.0297759 71.2388 639.225
1.97496 71.783 638.691
1.6977 71.7913 638.81
2.25218 71.7743 638.568
1.42047 71.8037 638.966
1.14311 71.8143 639.105
0.865762 71.83 639.29
0.308982 71.5477 639.399
0.588301 71.8472 639.488
0.310742 71.865 639.691
-1.36277 70.7813 640.454
-0.804865 71.0145 639.9
-1.08311 71.053 640.292
-0.803726 71.3423 640.289
-0.525628 71.3063 639.92
-0.247806 71.275 639.595
0.0314212 71.5705 639.648
-2.20202 70.2945 641.343
-2.48197 70.0157 641.445
-1.92216 70.5753 641.26
-2.20152 70.6155 641.67
-1.64207 70.8455 641.081
-1.36189 71.1051 640.807
-0.246318 71.5986 639.944
1.9776 72.1039 639.015
2.25527 72.1051 638.981
1.7001 72.1085 639.101
2.53277 72.1013 638.902
1.42263 72.1152 639.206
1.14519 72.1266 639.352
0.867726 72.1425 639.539
0.0330458 71.8873 639.935
0.590222 72.1679 639.809
0.312537 72.1876 640.029
-1.08212 71.3797 640.669
-0.524288 71.6293 640.264
-0.802614 71.672 640.691
-0.523019 71.9635 640.704
-0.244804 71.9138 640.216
-1.92155 70.8981 641.601
-2.20156 70.9541 642.153
-1.64139 71.1714 641.449
-1.92141 71.2379 642.094
-1.36123 71.4402 641.258
-1.08141 71.7257 641.216
0.0347008 72.2162 640.327
1.97999 72.4161 639.261
2.25775 72.417 639.223
1.70242 72.4222 639.359
2.53549 72.417 639.178
1.42485 72.4298 639.473
2.53828 72.7347 639.469
1.14739 72.4478 639.677
0.86986 72.4692 639.911
0.592233 72.499 640.22
0.314402 72.5289 640.529
-0.801763 72.0261 641.307
-0.243367 72.2542 640.71
-0.5219 72.3187 641.328
-1.64123 71.5202 642.02
-1.92192 71.6033 642.812
-1.36099 71.7991 641.917
-1.64138 71.8833 642.715
0.0363614 72.569 640.928
1.98267 72.7395 639.602
2.26052 72.7382 639.546
1.70499 72.747 639.714
1.42739 72.7608 639.88
2.54175 73.0722 639.932
2.26382 73.0771 640.02
1.14982 72.7831 640.122
0.872181 72.8121 640.423
0.594326 72.841 640.722
0.316319 72.8801 641.111
-1.08109 72.0976 641.989
-0.800987 72.3884 641.991
-0.241999 72.6167 641.395
-0.520775 72.6735 641.942
0.0380232 72.9238 641.542
-1.92182 71.9461 643.322
-1.36086 72.1631 642.617
-1.64115 72.2304 643.262
-1.36024 72.503 643.098
-1.08045 72.4499 642.582
1.98598 73.0858 640.142
1.70803 73.0917 640.24
1.43023 73.1076 640.424
2.82367 73.4144 640.387
2.54566 73.4229 640.506
2.26757 73.4302 640.615
1.15242 73.1298 640.664
0.874525 73.157 640.948
0.596456 73.1867 641.253
0.3182 73.2234 641.621
-0.79995 72.7282 642.471
-0.519502 73.0104 642.394
-0.240608 72.9726 642.017
0.039687 73.2648 642.029
0.59848 73.5207 641.679
-1.64065 72.5668 643.709
-1.35953 72.8374 643.527
-1.07942 72.7755 642.934
-1.07844 73.1052 643.32
-0.798796 73.0565 642.846
1.98937 73.4359 640.711
1.71117 73.4418 640.808
1.43312 73.4568 640.984
3.10574 73.7498 640.778
2.8277 73.7619 640.928
3.38352 73.7338 640.593
2.5492 73.7635 640.988
3.66119 73.7173 640.404
2.27084 73.7688 641.08
1.99234 73.7707 641.142
1.15495 73.472 641.162
0.876811 73.4974 641.43
0.320035 73.5553 642.026
0.600484 73.8527 642.084
-0.518194 73.3405 642.784
-0.239125 73.3035 642.414
-0.237615 73.6282 642.754
0.0413354 73.5897 642.373
0.321831 73.8789 642.357
0.878987 73.8281 641.824
1.15739 73.8088 641.611
-1.64071 72.9279 644.372
-1.35917 73.192 644.13
-1.07778 73.4582 643.907
-0.797688 73.391 643.272
-0.516914 73.6774 643.229
-0.796735 73.74 643.822
1.71395 73.7767 641.24
1.43566 73.7889 641.391
3.10939 74.0833 641.194
3.388 74.0812 641.131
2.83093 74.0891 641.291
2.5523 74.0915 641.357
3.93971 73.7191 640.373
3.66659 74.0784 641.061
3.94548 74.0819 641.045
2.27371 74.0946 641.43
4.21914 73.7361 640.476
4.49861 73.7518 640.567
1.99501 74.0947 641.477
1.7166 74.1058 641.618
0.88126 74.1672 642.287
0.602531 74.189 642.522
1.15985 74.1476 642.072
0.0429981 73.9225 642.782
-0.236162 73.9683 643.226
0.323701 74.2205 642.84
1.43821 74.1222 641.806
-1.35887 73.5515 644.771
-1.641 73.3005 645.13
-1.07724 73.8189 644.556
-0.515768 74.0323 643.829
-0.795851 74.0961 644.429
-0.234755 74.3257 643.844
3.11271 74.4089 641.54
3.39152 74.408 641.487
2.83401 74.4125 641.617
3.67031 74.4064 641.427
2.55515 74.4125 641.663
2.27656 74.4196 641.77
4.22463 74.0891 641.061
4.50382 74.0959 641.075
3.94932 74.4092 641.405
4.2285 74.4139 641.4
4.50748 74.4149 641.363
1.99788 74.4257 641.868
5.05757 73.7772 640.696
4.78285 74.099 641.056
5.06194 74.1026 641.041
1.71936 74.4405 642.042
1.16238 74.4907 642.567
0.883564 74.5101 642.78
1.44094 74.4638 642.289
0.604674 74.5382 643.068
0.0446584 74.2698 643.314
0.32564 74.5737 643.421
-1.35828 73.8944 645.262
-1.07654 74.1695 645.114
-1.64087 73.6548 645.722
-1.3577 74.2393 645.767
-0.794902 74.4466 644.983
-0.514599 74.3853 644.406
0.0463393 74.6232 643.894
-0.233316 74.6779 644.412
-0.513331 74.7264 644.877
0.327555 74.9255 643.985
3.11617 74.7384 641.916
3.39516 74.7378 641.866
3.67423 74.7384 641.825
2.83719 74.7388 641.966
3.95313 74.7359 641.757
2.55845 74.7466 642.079
2.27968 74.7538 642.187
4.78671 74.4192 641.354
4.23235 74.7387 641.735
4.5116 74.7418 641.716
5.06622 74.4271 641.376
4.79106 74.7473 641.717
2.001 74.7671 642.347
5.33698 73.7866 640.731
5.34128 74.1091 641.051
5.89569 73.8011 640.765
5.3459 74.4363 641.409
1.72237 74.7853 642.55
1.4437 74.8089 642.798
1.16488 74.8323 643.046
0.885909 74.8565 643.299
0.60678 74.883 643.574
-1.07578 74.5171 645.64
-0.793927 74.7951 645.516
-1.6399 74.3328 646.626
-1.35733 74.5959 646.369
-1.07517 74.8752 646.253
-0.512076 75.069 645.356
-0.231851 75.0193 644.883
0.04801 74.9717 644.428
0.329433 75.2689 644.472
0.049682 75.3112 644.88
0.608866 75.2245 644.046
0.888179 75.1966 643.761
3.12033 75.0849 642.435
3.39946 75.0826 642.37
3.67869 75.0819 642.318
3.95771 75.0775 642.234
2.84111 75.0849 642.482
4.23686 75.0755 642.171
2.56212 75.0917 642.586
2.2831 75.0988 642.693
4.51609 75.0749 642.12
5.0707 74.7547 641.734
4.79555 75.0777 642.098
5.62539 74.4418 641.411
5.0756 75.0888 642.147
2.00428 75.1147 642.875
5.90058 74.1275 641.118
6.17537 73.8108 640.804
6.45584 73.8287 640.914
6.1809 74.1431 641.208
6.4618 74.1641 641.343
5.90536 74.4527 641.459
5.63057 74.7748 641.815
1.72539 75.1322 643.071
1.44646 75.1526 643.291
1.16732 75.1701 643.488
-0.792933 75.1431 646.039
-0.510836 75.414 645.853
-0.230382 75.3594 645.339
-1.63969 74.6853 647.19
-1.35723 74.9679 647.099
-1.07461 75.2382 646.903
-0.791937 75.4918 646.565
0.0513613 75.6529 645.348
0.33129 75.6051 644.894
0.610949 75.5661 644.515
0.890383 75.5311 644.17
1.16972 75.5056 643.907
1.44903 75.4878 643.709
3.12441 75.4298 642.937
3.40375 75.4272 642.869
2.84498 75.4304 642.988
3.68315 75.4256 642.809
3.96252 75.4239 642.748
4.2416 75.4167 642.641
4.52118 75.4183 642.609
2.5657 75.4352 643.076
2.28637 75.4385 643.15
5.35574 75.0999 642.196
5.08085 75.4286 642.603
5.91061 74.7844 641.851
5.63601 75.1114 642.248
5.36095 75.4363 642.623
2.00745 75.4588 643.369
7.02427 74.2073 641.625
6.46703 74.4913 641.699
6.74843 74.5141 641.85
6.19149 74.8029 641.965
5.91643 75.1233 642.304
1.72829 75.4733 643.539
-0.509635 75.7674 646.418
-0.228908 75.7007 645.802
0.0530332 76.0021 645.876
0.333187 75.9499 645.386
-1.35691 75.3289 647.73
-1.6401 75.0666 647.997
-1.07394 75.5943 647.49
-0.791063 75.8525 647.19
-0.227464 76.0523 646.35
-0.508513 76.1312 647.066
0.613024 75.9062 644.969
0.892649 75.8705 644.619
1.17215 75.8436 644.344
1.45157 75.8216 644.111
1.73101 75.8075 643.945
2.01024 75.7884 643.736
3.12787 75.7603 643.313
3.40752 75.7609 643.271
2.84833 75.7621 643.374
3.68699 75.7573 643.194
2.56881 75.7645 643.441
3.9667 75.7586 643.16
4.24626 75.7568 643.098
4.52597 75.7576 643.058
4.80583 75.7601 643.034
2.28951 75.7748 643.575
5.64149 75.4488 642.684
5.08598 75.7667 643.043
5.36627 75.7745 643.063
6.47272 74.824 642.1
6.19744 75.1414 642.412
5.92221 75.4623 642.752
7.30653 74.2368 641.834
7.03 74.5368 641.999
7.58941 74.2699 642.075
7.31231 74.5653 642.198
6.75426 74.8467 642.248
6.47902 75.1642 642.561
0.0547309 76.3502 646.391
0.335089 76.2961 645.887
0.615092 76.2476 645.43
0.894958 76.2142 645.101
-1.35633 75.6761 648.237
-1.07321 75.9477 648.049
-1.63975 75.4141 648.509
-1.63919 75.7525 648.937
-0.790187 76.2155 647.829
-0.226042 76.4128 646.967
-0.507332 76.4877 647.648
0.336984 76.6414 646.376
0.0564127 76.6947 646.871
-0.224602 76.7698 647.552
1.17473 76.1916 644.863
1.45425 76.1624 644.569
1.73376 76.1426 644.355
2.01314 76.1225 644.139
2.29255 76.1074 643.965
2.57203 76.098 643.839
3.13104 76.0839 643.627
3.4108 76.0839 643.581
2.8516 76.0918 643.74
3.69056 76.0835 643.531
3.97042 76.0848 643.496
4.25023 76.0849 643.45
4.53026 76.0885 643.434
4.81054 76.0952 643.444
5.09064 76.0983 643.424
6.20338 75.48 642.857
5.92746 75.795 643.145
5.37103 76.1051 643.436
5.65167 76.1145 643.468
7.03614 74.8708 642.409
6.48514 75.5029 643.005
6.2087 75.8113 643.237
7.8725 74.3026 642.312
7.5953 74.5979 642.434
7.87887 74.6338 642.697
7.3186 74.8991 642.605
7.04287 75.2115 642.873
0.617197 76.5922 645.914
0.619345 76.942 646.439
0.89725 76.557 645.57
1.17729 76.538 645.364
1.45703 76.5098 645.079
-1.3559 76.0329 648.822
-1.07258 76.3072 648.655
-0.789322 76.5783 648.462
-1.3555 76.3912 649.415
-1.07191 76.6651 649.243
-0.506143 76.8454 648.236
0.338889 76.991 646.897
0.058106 77.0476 647.419
-0.223137 77.1236 648.105
0.89958 76.9031 646.065
0.621489 77.2921 646.962
0.0597939 77.402 647.975
0.340817 77.3407 647.415
1.73662 76.4827 644.805
2.01607 76.4585 644.554
2.29571 76.445 644.394
2.57529 76.4328 644.245
2.85493 76.4239 644.124
3.13444 76.4131 643.986
3.41419 76.4096 643.91
3.69416 76.4106 643.872
3.97413 76.4112 643.83
4.25436 76.416 643.825
4.53451 76.4189 643.803
4.81501 76.4267 643.822
5.09527 76.43 643.803
6.49055 75.8335 643.378
5.93277 76.1286 643.541
5.37597 76.4388 643.831
5.65664 76.4461 643.846
6.21406 76.1436 643.621
5.93763 76.4568 643.89
7.60191 74.9333 642.853
7.04904 75.5468 643.287
6.49565 76.1608 643.72
8.16277 74.6702 642.964
8.44674 74.7045 643.213
8.16998 75.008 643.401
7.32523 75.2369 643.043
7.33121 75.5681 643.422
1.17968 76.8738 645.773
0.901926 77.2512 646.572
1.18213 77.2137 646.213
1.45976 76.8531 645.552
1.7394 76.8201 645.228
2.01914 76.7993 645.007
-0.788404 76.9377 649.061
-0.504918 77.1988 648.783
-1.35526 76.7594 650.089
-1.07115 77.0177 649.783
-0.78744 77.2939 649.629
-0.221659 77.4684 648.578
0.904215 77.594 647.032
0.623596 77.6371 647.438
0.0614822 77.7508 648.48
0.342721 77.6873 647.904
1.46234 77.1902 645.969
1.18458 77.555 646.661
0.625691 77.9812 647.904
0.906467 77.9347 647.471
2.29876 76.7785 644.786
2.57852 76.7668 644.641
2.85828 76.7567 644.51
3.13801 76.7472 644.383
3.41785 76.7416 644.29
3.69819 76.7466 644.286
3.97834 76.7474 644.246
4.25868 76.7511 644.23
4.53904 76.7545 644.212
4.81971 76.7624 644.232
5.10027 76.7671 644.225
5.38079 76.771 644.211
7.05462 75.8758 643.645
6.77772 76.1817 643.851
6.21913 76.4726 643.976
5.66177 76.7802 644.241
6.50077 76.4885 644.064
5.9428 76.7893 644.271
7.61391 75.593 643.588
7.337 75.8978 643.785
7.05982 76.2011 643.968
8.45337 75.0356 643.591
8.18119 75.6551 644.024
7.61973 75.9217 643.941
1.74227 77.1621 645.687
1.46483 77.5224 646.342
1.74509 77.5011 646.118
2.02213 77.1375 645.434
2.30186 77.1146 645.196
2.58188 77.1049 645.069
-0.503702 77.5536 649.338
-0.220181 77.8166 649.076
-1.35443 77.0954 650.486
-1.07033 77.366 650.282
-0.78641 77.6427 650.131
-1.0696 77.7226 650.847
-0.502511 77.9127 649.924
0.0631808 78.097 648.96
0.344627 78.0355 648.402
1.18705 77.8969 647.11
1.46746 77.8626 646.778
0.346535 78.3833 648.894
0.627765 78.324 648.356
0.908682 78.271 647.87
2.02507 77.4751 645.854
1.74788 77.8399 646.543
1.18949 78.2363 647.536
0.91094 78.612 648.305
1.4701 78.2034 647.216
2.86172 77.0919 644.913
3.14162 77.0826 644.789
3.42168 77.0778 644.702
3.70207 77.0802 644.675
3.98248 77.0827 644.65
4.26317 77.0895 644.66
4.54356 77.0903 644.62
4.82407 77.0926 644.593
5.10487 77.0989 644.599
5.38573 77.1051 644.604
6.78306 76.5104 644.202
7.34234 76.2233 644.109
6.2243 76.8031 644.34
5.66689 77.1147 644.638
6.506 76.818 644.419
7.06541 76.5308 644.327
5.94797 77.1221 644.653
6.22938 77.1328 644.696
7.90314 75.9503 644.137
8.4652 75.686 644.241
8.749 75.7131 644.425
8.18696 75.9805 644.347
8.47094 76.0101 644.552
7.90919 76.28 644.496
7.62554 76.2504 644.292
2.30515 77.4573 645.659
2.02825 77.8209 646.339
2.30849 77.8018 646.133
2.58511 77.4398 645.466
2.86526 77.4302 645.339
3.14517 77.4165 645.179
-0.218718 78.1702 649.616
0.0648819 78.4438 649.441
-0.785363 77.9913 650.627
-1.06871 78.0673 651.308
-0.501242 78.2619 650.425
-0.784234 78.3338 651.069
-0.499942 78.6055 650.875
-0.217238 78.5224 650.139
0.348446 78.7311 649.382
0.629854 78.6663 648.8
1.75078 78.1839 647.009
2.03124 78.161 646.772
0.631999 79.0171 649.311
0.913305 78.9622 648.812
1.19184 78.5711 647.921
1.19434 78.9151 648.378
1.47276 78.5459 647.666
2.5886 77.7827 645.927
2.31176 78.1441 646.585
1.75348 78.5191 647.397
1.47539 78.886 648.092
2.03422 78.4998 647.192
3.42532 77.41 645.077
3.70579 77.4106 645.036
3.98653 77.4165 645.039
4.2672 77.42 645.021
4.54802 77.4253 645.018
4.82866 77.4271 644.987
5.10956 77.4322 644.982
5.39043 77.4362 644.97
6.78823 76.8374 644.535
7.34819 76.5542 644.477
6.51108 77.1458 644.758
5.67172 77.4453 644.998
6.79332 77.1637 644.861
7.63115 76.5774 644.626
6.23458 77.4643 645.063
6.51661 77.4794 645.142
8.75552 76.0429 644.783
8.19331 76.3116 644.716
9.04077 76.079 645.043
8.47759 76.3425 644.931
7.9146 76.6037 644.8
2.86885 77.7705 645.78
2.59199 78.1227 646.361
2.8724 78.1096 646.206
3.14892 77.7558 645.611
3.42917 77.7472 645.492
0.0665884 78.7972 649.974
0.350372 79.0815 649.887
-1.06781 78.4127 651.772
-0.783227 78.6871 651.598
-0.498693 78.9587 651.401
-0.215764 78.8745 650.659
-0.214285 79.2266 651.173
0.068289 79.15 650.497
0.915687 79.3148 649.335
0.634144 79.3679 649.817
2.31472 78.477 646.957
2.59529 78.4606 646.775
1.19687 79.2621 648.857
1.47806 79.2291 648.54
1.75627 78.8584 647.818
1.75904 79.1975 648.233
2.03705 78.8337 647.568
3.1528 78.0984 646.066
2.8758 78.4452 646.6
2.31781 78.814 647.359
2.04 79.1723 647.98
2.5986 78.799 647.189
3.70951 77.7415 645.398
3.99033 77.7459 645.388
4.27133 77.7525 645.396
4.55238 77.7589 645.402
4.83311 77.7596 645.361
5.11418 77.7647 645.357
5.39541 77.7717 645.368
5.67671 77.7785 645.378
7.35378 76.8827 644.822
6.7987 77.4938 645.215
5.95817 77.7868 645.4
7.63701 76.9073 644.982
7.92026 76.9302 645.128
6.23971 77.795 645.421
8.76145 76.3678 645.098
9.04622 76.3988 645.314
8.19881 76.6351 645.019
8.76673 76.6872 645.364
8.48326 76.6665 645.236
3.15648 78.4366 646.483
3.43314 78.0874 645.929
3.43716 78.4293 646.375
3.71354 78.0788 645.811
0.352264 79.425 650.332
0.63626 79.715 650.29
0.917971 79.6581 649.778
-0.782291 79.0497 652.198
-0.497457 79.3138 651.938
-0.212795 79.576 651.663
0.0699915 79.4999 650.993
0.0717089 79.8535 651.515
0.354189 79.7772 650.845
1.1994 79.6101 649.34
1.48065 79.5688 648.956
0.920261 80.0029 650.232
2.87913 78.7793 646.98
3.16008 78.7732 646.883
1.76193 79.5418 648.689
2.04293 79.5105 648.386
2.32092 79.1517 647.764
2.32401 79.489 648.164
2.60186 79.1358 647.588
2.88259 79.1171 647.387
2.60502 79.4701 647.962
3.16349 79.1053 647.244
3.99437 78.0802 645.775
4.27534 78.0832 645.754
4.55649 78.0889 645.753
4.83774 78.095 645.757
5.11883 78.0981 645.736
5.40035 78.1069 645.761
5.68171 78.1122 645.758
5.96349 78.1225 645.797
7.36452 77.5362 645.474
7.37006 77.865 645.814
6.24515 78.1302 645.814
8.20398 76.9558 645.296
7.92616 77.2592 645.472
8.48848 76.9866 645.507
6.52733 78.1433 645.875
8.49413 77.3109 645.81
3.441 78.7673 646.788
3.71783 78.4224 646.272
3.7221 78.7659 646.729
3.99844 78.4152 646.165
0.638424 80.0688 650.815
1.20199 79.9609 649.842
1.20454 80.3096 650.325
1.48344 79.9185 649.451
-0.781267 79.4043 652.729
-0.496203 79.6692 652.474
-0.211309 79.933 652.211
-0.780107 79.7454 653.146
0.0734121 80.2062 652.026
0.356134 80.1331 651.385
0.358076 80.4846 651.884
0.640553 80.4183 651.3
0.922651 80.3567 650.754
1.76487 79.8885 649.16
2.04608 79.8574 648.859
1.48628 80.2718 649.971
3.4446 79.1002 647.154
2.32724 79.8319 648.605
2.60829 79.8081 648.364
2.8861 79.4563 647.803
2.88975 79.8 648.252
3.16714 79.4436 647.652
3.44829 79.4355 647.538
3.17104 79.7888 648.113
3.72604 79.1023 647.124
4.27962 78.419 646.15
4.56088 78.4235 646.14
4.84217 78.428 646.13
5.12343 78.4309 646.107
5.40514 78.4402 646.137
5.68687 78.4484 646.157
5.96852 78.4548 646.163
6.25055 78.465 646.2
7.64808 77.5613 645.637
7.65353 77.8879 645.957
7.93225 77.5905 645.833
8.21028 77.2874 645.661
7.37599 78.1982 646.188
6.80999 78.1608 645.973
7.93783 77.917 646.152
7.65963 78.2213 646.332
6.53283 78.4775 646.256
6.81557 78.4939 646.344
8.21644 77.6178 646.014
8.50026 77.6398 646.15
8.78383 77.6581 646.256
4.00307 78.7615 646.646
4.00729 79.1003 647.061
4.28417 78.76 646.587
1.20703 80.6557 650.782
1.76785 80.2375 649.646
1.489 80.6184 650.434
1.77071 80.5817 650.09
2.04918 80.2033 649.322
-0.494911 80.0188 652.958
-0.209841 80.2928 652.778
-0.779014 80.0935 653.616
0.0751232 80.555 652.502
-0.493673 80.3756 653.499
-0.208367 80.6546 653.356
0.360001 80.8364 652.383
0.64269 80.7691 651.792
0.925032 80.7098 651.266
0.644855 81.1216 652.295
0.927387 81.0602 651.753
1.20958 81.004 651.254
2.33057 80.1783 649.072
2.61189 80.1566 648.849
2.05229 80.5493 649.781
3.72953 79.4295 647.443
2.89336 80.143 648.691
3.17487 80.1321 648.555
3.45231 79.7785 647.982
3.73353 79.7683 647.852
4.01119 79.4331 647.425
3.45634 80.1219 648.426
4.2886 79.0993 647.005
4.56537 78.7603 646.542
4.84701 78.7675 646.554
5.1283 78.7683 646.513
5.40982 78.7722 646.498
5.69166 78.7798 646.514
5.9737 78.7892 646.544
6.25599 78.8007 646.591
8.22202 77.9433 646.323
7.09836 78.5094 646.425
7.38173 78.5298 646.546
7.66537 78.5512 646.675
8.22806 78.2732 646.667
7.9492 78.5731 646.808
6.53819 78.8102 646.622
6.82092 78.8248 646.694
7.10387 78.8403 646.775
8.79075 77.9931 646.642
9.0701 77.6983 646.543
9.0737 78.0034 646.68
8.51227 78.2962 646.81
4.29269 79.4327 647.374
4.57018 79.1032 646.991
1.49169 80.9642 650.887
1.77352 80.9239 650.514
2.33389 80.525 649.538
2.05532 80.8932 650.221
2.33718 80.8706 649.991
2.6155 80.5059 649.336
0.0768503 80.9157 653.071
-0.778255 80.4768 654.369
-0.492527 80.7508 654.183
-0.206881 81.0153 653.923
0.361963 81.1937 652.923
0.0785725 81.2735 653.612
0.647019 81.4762 652.811
0.929702 81.4084 652.219
1.21213 81.3546 651.741
1.49433 81.3076 651.317
0.932055 81.7598 652.708
1.2147 81.7057 652.228
1.49709 81.6576 651.796
1.77638 81.2685 650.956
2.89694 80.4853 649.123
3.17851 80.4711 648.96
2.61916 80.8568 649.833
4.01507 79.7655 647.782
3.45996 80.4567 648.797
3.73759 80.1084 648.269
3.74176 80.4511 648.704
4.01921 80.1037 648.184
4.29672 79.7653 647.733
4.57455 79.4386 647.375
4.85164 79.1041 646.951
5.13322 79.1066 646.924
5.4148 79.1088 646.895
5.69683 79.1168 646.913
5.97873 79.1222 646.91
6.26123 79.1344 646.963
6.54381 79.1464 647.014
7.38737 78.8607 646.895
7.67122 78.8828 647.029
8.23379 78.6005 646.987
8.51835 78.6257 647.147
7.95504 78.9031 647.148
6.82662 79.16 647.078
7.1099 79.1775 647.173
8.23954 78.9283 647.308
4.85641 79.4434 647.366
4.57878 79.7719 647.739
2.05832 81.2356 650.645
2.3403 81.2109 650.399
2.90072 80.8332 649.595
2.62259 81.2011 650.273
2.90444 81.1801 650.057
3.18219 80.8117 649.375
0.363902 81.5485 653.438
-0.777396 80.8508 655.041
-0.491351 81.123 654.839
-0.205383 81.3678 654.418
0.0803007 81.6318 654.153
0.6492 81.8333 653.343
0.365856 81.9052 653.965
0.934444 82.1145 653.219
1.21727 82.0574 652.717
1.7794 81.6211 651.458
2.06139 81.5812 651.091
1.49987 82.0089 652.284
1.78242 81.9735 651.954
2.06473 81.9371 651.617
2.34352 81.5547 650.832
3.46385 80.7975 649.214
3.74575 80.7905 649.11
3.18599 81.1555 649.813
4.30104 80.1034 648.134
4.02347 80.4445 648.604
4.02777 80.7864 649.03
4.30548 80.444 648.552
4.58285 80.1026 648.08
4.86076 79.7761 647.726
5.13817 79.4459 647.34
5.41979 79.4461 647.294
5.7018 79.4512 647.289
5.98396 79.4578 647.295
6.26654 79.4689 647.339
6.54958 79.4847 647.42
7.6769 79.2128 647.368
7.96095 79.2339 647.493
8.52417 78.9528 647.462
8.24539 79.2573 647.637
6.83257 79.4983 647.483
7.11592 79.5147 647.57
7.39913 79.5284 647.634
8.5303 79.2832 647.801
5.14258 79.7769 647.685
4.86512 80.1092 648.086
2.62569 81.5355 650.632
2.90792 81.521 650.468
3.46762 81.1363 649.611
3.18953 81.493 650.197
3.47153 81.4784 650.032
3.74975 81.1301 649.514
0.651378 82.1889 653.86
-0.490109 81.4824 655.388
-0.203891 81.7263 654.958
-0.202417 82.0917 655.55
0.0820401 81.9951 654.73
0.367815 82.2614 654.484
0.936867 82.4721 653.75
1.21978 82.4057 653.176
0.653536 82.5419 654.351
1.50266 82.3613 652.776
1.50537 82.7097 653.233
1.7853 82.3197 652.398
1.78821 82.6683 652.858
2.34678 81.9008 651.28
2.62899 81.8761 651.036
2.06788 82.2869 652.09
2.35015 82.2499 651.749
2.63243 82.2216 651.477
2.91129 81.8588 650.851
4.03201 81.1276 649.446
4.30997 80.7861 648.979
3.75371 81.4695 649.914
4.58739 80.4418 648.487
4.31422 81.1241 649.371
4.5919 80.7811 648.892
4.86955 80.4437 648.455
5.14727 80.1128 648.068
5.4246 79.7808 647.669
5.70679 79.7862 647.666
5.98926 79.7949 647.69
6.27195 79.8054 647.727
6.55535 79.8234 647.827
7.68263 79.5437 647.711
8.2511 79.585 647.953
8.53611 79.6108 648.116
6.8387 79.8393 647.908
7.12188 79.8517 647.961
7.40514 79.8641 648.015
7.68844 79.8755 648.06
8.25707 79.9158 648.292
8.54174 79.937 648.417
5.42947 80.117 648.054
5.15175 80.4457 648.423
3.19325 81.8353 650.616
3.47541 81.8202 650.448
3.75783 81.8125 650.34
4.03626 81.4692 649.864
1.22241 82.7622 653.696
0.939331 82.8332 654.305
0.0837618 82.3527 655.259
-0.200937 82.4627 656.182
0.0854987 82.7092 655.774
0.369762 82.6164 654.99
0.37172 82.9723 655.5
0.655728 82.9002 654.882
1.50825 83.0669 653.756
1.79113 83.0169 653.315
1.22517 83.1265 654.274
0.941756 83.1912 654.831
2.07102 82.6357 652.553
2.07414 82.9848 653.014
2.3535 82.5998 652.221
2.35698 82.9538 652.722
2.91494 82.2045 651.293
3.19719 82.1837 651.081
2.63603 82.5727 651.959
2.91852 82.5488 651.723
3.20111 82.5315 651.538
3.47926 82.1616 650.858
4.59681 81.1274 649.35
4.31878 81.4681 649.807
4.87406 80.78 648.836
4.04061 81.8131 650.296
4.87883 81.1209 649.25
4.60138 81.4682 649.76
5.15639 80.7813 648.798
5.7118 80.1221 648.048
5.99457 80.1325 648.085
6.2776 80.145 648.139
6.56088 80.1594 648.208
6.84432 80.1746 648.283
8.26325 80.2488 648.646
7.12754 80.1855 648.324
7.41101 80.1986 648.382
7.69462 80.2116 648.44
8.54813 80.2707 648.775
8.2701 80.5888 649.054
5.71691 80.4593 648.438
5.4389 80.7851 648.782
3.7619 82.1549 650.757
4.0446 82.15 650.671
4.32319 81.8095 650.22
1.79422 83.3739 653.834
1.5111 83.4235 654.271
-0.199434 82.8203 656.703
0.0872237 83.0672 656.297
0.373667 83.3296 656.017
-0.197893 83.1688 657.149
0.0889674 83.428 656.839
0.65793 83.2597 655.418
0.944148 83.5471 655.337
0.660143 83.6203 655.959
1.22784 83.486 654.81
2.07729 83.3354 653.484
2.36038 83.3058 653.203
1.79736 83.7339 654.373
1.514 83.7826 654.802
2.63972 82.9267 652.46
2.64323 83.2749 652.913
2.92217 82.8952 652.164
2.92601 83.2478 652.652
3.48351 82.5128 651.343
3.76604 82.499 651.185
3.20492 82.8775 651.978
3.48758 82.8601 651.792
3.77048 82.8501 651.665
4.88362 81.4623 649.665
5.16115 81.1191 649.188
4.60581 81.8068 650.151
4.32756 82.1506 650.627
5.16614 81.4609 649.607
5.44356 81.1191 649.141
4.8883 81.8022 650.067
5.72178 80.7937 648.803
5.99977 80.4688 648.467
6.28298 80.4816 648.523
6.56639 80.4957 648.589
6.85003 80.5112 648.666
7.98511 80.5658 648.916
7.70077 80.5478 648.819
8.55499 80.6089 649.168
7.417 80.5346 648.76
8.84147 80.6425 649.391
7.99182 80.9062 649.325
8.27677 80.9272 649.446
7.7073 80.8882 649.229
6.00481 80.8034 648.833
5.72678 81.1301 649.18
4.04881 82.4916 651.079
4.61034 82.1477 650.557
4.33197 82.4926 651.039
2.08064 83.6944 654.016
2.36381 83.6593 653.694
0.375644 83.6898 656.553
-0.196376 83.5212 657.622
0.0907055 83.7784 657.296
0.946546 83.9036 655.845
0.662333 83.9789 656.481
0.377609 84.0486 657.074
1.23043 83.8406 655.304
1.51682 84.1391 655.309
0.948972 84.2629 656.37
1.23303 84.1962 655.802
1.80047 84.0926 654.898
2.64672 83.6232 653.363
2.92979 83.5986 653.123
2.08395 84.0516 654.53
2.36738 84.0182 654.222
3.20853 83.2182 652.372
3.2128 83.5766 652.903
3.49168 83.2085 652.248
3.49582 83.5578 652.708
4.05327 82.8389 651.53
3.77475 83.1978 652.116
4.05785 83.1889 651.998
4.3363 82.8337 651.441
5.17094 81.8002 650.003
5.44874 81.461 649.56
4.89309 82.1443 650.481
4.61498 82.4907 650.976
5.73181 81.4674 649.563
5.45382 81.8017 649.967
6.01002 81.1405 649.216
5.17585 82.1414 650.411
6.28843 80.8194 648.914
6.57189 80.832 648.967
6.85567 80.8473 649.043
7.13917 80.8578 649.08
7.42289 80.87 649.13
8.56175 80.9467 649.555
8.84725 80.9699 649.693
8.56928 81.2922 650
7.71368 81.2275 649.626
7.99848 81.2466 649.731
7.42927 81.211 649.542
6.29355 81.1533 649.271
4.89815 82.4914 650.934
4.61959 82.8337 651.393
2.65042 83.9786 653.865
2.93362 83.9517 653.607
0.66448 84.3311 656.95
0.379563 84.4045 657.57
0.381467 84.746 657.95
0.666654 84.6883 657.453
1.51969 84.4966 655.82
1.23562 84.5519 656.298
0.951463 84.6276 656.933
1.80347 84.4461 655.379
2.08722 84.4075 655.031
1.52263 84.8596 656.369
1.80657 84.8052 655.9
2.37084 84.3727 654.712
3.21683 83.9293 653.384
3.50016 83.913 653.209
2.65425 84.3387 654.401
2.93743 84.3039 654.082
3.77898 83.5448 652.558
3.78326 83.8933 653.008
4.06234 83.5375 652.453
4.0666 83.8818 652.87
4.34084 83.1789 651.872
4.34552 83.5273 652.325
4.62423 83.1772 651.81
4.90303 82.8359 651.362
5.73689 81.8057 649.951
5.45915 82.1466 650.404
5.18124 82.4906 650.879
6.29889 81.4902 649.649
6.02055 81.8171 649.994
5.74223 82.1479 650.366
6.57729 81.1674 649.336
5.4645 82.492 650.843
6.86137 81.1844 649.424
7.14539 81.199 649.494
8.8553 81.3183 650.161
8.00549 81.5909 650.165
7.72028 81.5693 650.041
7.15141 81.5383 649.89
6.58294 81.5062 649.73
5.18658 82.8392 651.34
4.90781 83.1789 651.775
3.22079 84.2801 653.849
3.50417 84.26 653.645
1.23843 84.9217 656.899
0.953867 84.9854 657.44
0.668738 85.0323 657.851
0.670707 85.3634 658.148
0.956041 85.3229 657.787
1.24109 85.2819 657.422
2.09049 84.7645 655.537
1.52551 85.2198 656.894
2.37429 84.7276 655.203
2.658 84.6964 654.913
1.80961 85.1617 656.398
2.09379 85.1223 656.046
2.37768 85.0812 655.68
2.94133 84.6597 654.581
3.7876 84.2437 653.47
4.07104 84.2299 653.315
3.2248 84.6328 654.325
3.50821 84.6084 654.088
4.35029 83.8777 652.79
4.62915 83.5263 652.268
4.35488 84.2251 653.229
4.63414 83.8771 652.737
4.9128 83.5258 652.217
5.19193 83.1885 651.802
5.47002 82.8404 651.301
6.3043 81.8285 650.036
6.02597 82.1579 650.398
5.74787 82.4948 650.817
6.86712 81.5224 649.811
6.58856 81.8451 650.12
6.30999 82.1706 650.45
6.03168 82.5033 650.836
5.75363 82.8439 651.281
8.58355 81.9764 650.828
8.29785 81.955 650.706
7.72696 81.9122 650.462
7.44213 81.8952 650.375
7.15754 81.8791 650.295
6.87307 81.8632 650.216
5.47558 83.19 651.766
5.19681 83.5305 652.205
3.79206 84.5969 653.95
4.07563 84.5814 653.782
1.81256 85.5145 656.864
1.24359 85.6317 657.861
0.958415 85.6791 658.275
1.24622 85.9898 658.362
1.52821 85.5698 657.337
1.53083 85.9154 657.743
1.81546 85.8649 657.308
2.66156 85.0486 655.381
2.09688 85.4719 656.487
2.94522 85.015 655.073
3.22878 84.9848 654.792
2.3812 85.4394 656.19
2.66514 85.4015 655.85
2.94902 85.3687 655.549
3.51247 84.9623 654.57
4.63888 84.2236 653.169
4.35962 84.5758 653.69
3.79647 84.9496 654.423
4.08039 84.9371 654.278
4.91784 83.8737 652.662
4.92298 84.2241 653.124
4.64376 84.5731 653.621
5.20171 83.8733 652.611
5.48081 83.5346 652.188
5.75924 83.191 651.726
6.03737 82.8487 651.27
6.59415 82.1839 650.508
6.31577 82.5142 650.874
6.87876 82.2013 650.598
6.59982 82.5239 650.902
6.32171 82.8605 651.315
6.04311 83.1949 651.708
8.30504 82.3 651.139
8.59075 82.3198 651.247
8.01917 82.2769 651.004
8.87736 82.3465 651.411
7.73369 82.2562 650.888
7.44842 82.2362 650.778
7.16343 82.2175 650.678
5.7647 83.5365 652.155
5.48591 83.8777 652.597
4.36452 84.9299 654.175
2.1001 85.8281 656.977
2.38458 85.7932 656.661
1.81822 86.2088 657.7
2.10594 86.5149 657.752
2.10315 86.177 657.408
2.38791 86.145 657.115
3.23269 85.3356 655.246
2.66878 85.7565 656.332
3.51672 85.3165 655.051
3.8009 85.303 654.899
2.9529 85.7244 656.037
3.23679 85.6915 655.737
3.52089 85.669 655.516
4.08507 85.2915 654.762
5.20679 84.2192 653.038
4.92797 84.5721 653.565
4.64867 84.9234 654.076
4.36931 85.282 654.64
5.491 84.2212 653.005
5.21208 84.5691 653.493
4.93302 84.9213 654.011
5.76993 83.8789 652.558
6.04875 83.5401 652.136
6.32756 83.2057 651.745
6.60595 82.8701 651.343
6.88456 82.5408 650.988
7.16941 82.5573 651.069
6.89066 82.8844 651.407
6.61201 83.2156 651.774
6.33304 83.5467 652.139
8.02545 82.6148 651.379
8.31173 82.6403 651.532
7.73983 82.5942 651.264
8.5984 82.6677 651.7
8.88524 82.695 651.867
7.45458 82.5761 651.17
8.60526 83.0086 652.094
6.05439 83.886 652.565
5.77538 84.2247 652.984
4.65379 85.2784 654.564
2.67232 86.1088 656.79
2.95675 86.08 656.521
2.39094 86.4868 657.489
2.67879 86.7949 657.557
2.67577 86.4589 657.229
2.96372 86.7706 657.324
2.96026 86.4257 656.927
3.80512 85.6524 655.34
3.24096 86.05 656.244
4.08961 85.6432 655.221
3.52524 86.0265 656.016
3.8093 86.0007 655.771
4.09393 85.9903 655.642
4.37403 85.6335 655.098
5.49642 84.5697 653.449
5.21749 84.921 653.96
4.93809 85.2716 654.463
4.65858 85.6271 655
6.05996 84.231 652.985
5.78076 84.5702 653.404
5.50169 84.9166 653.878
5.22267 85.2698 654.401
6.33897 83.8937 652.577
6.61815 83.5627 652.215
6.89686 83.2293 651.834
7.17548 82.8985 651.469
7.46052 82.9141 651.544
7.18219 83.2473 651.926
6.90308 83.5751 652.264
7.74628 82.9359 651.667
8.03214 82.957 651.785
8.31848 82.9816 651.93
8.61291 83.3572 652.545
8.32588 83.3298 652.379
8.03948 83.3066 652.246
8.90043 83.3876 652.735
6.62398 83.9062 652.625
6.34465 84.2379 652.99
6.06548 84.5759 653.4
4.94311 85.6213 654.907
3.24498 86.4048 656.719
3.52935 86.3783 656.469
3.24852 86.7469 657.095
3.53345 86.7298 656.917
4.37841 85.9783 655.502
3.81383 86.3573 656.261
4.09822 86.3376 656.062
4.38306 86.3288 655.946
4.66305 85.9706 655.394
5.78651 84.9213 653.866
5.50733 85.2694 654.349
5.22777 85.6176 654.83
4.9479 85.967 655.318
6.6299 84.2511 653.043
6.35073 84.5876 653.442
6.07132 84.9254 653.848
5.79219 85.2717 654.318
5.51239 85.6136 654.751
6.90914 83.9192 652.678
7.18853 83.5923 652.35
7.7534 83.285 652.125
7.47409 83.6096 652.437
8.33387 83.6842 652.873
8.62108 83.7114 653.037
8.04705 83.6587 652.723
8.90864 83.7403 653.215
7.76016 83.6306 652.552
8.34094 84.0298 653.297
6.91535 84.2656 653.107
6.63586 84.5969 653.466
5.23256 85.9607 655.221
3.81802 86.7068 656.694
4.10289 86.6934 656.543
4.10712 87.04 656.952
4.66779 86.3192 655.825
4.38815 86.6885 656.457
4.67303 86.6773 656.324
4.95282 86.3156 655.748
6.35669 84.9361 653.883
6.07723 85.2761 654.304
5.79753 85.6175 654.732
5.51777 85.963 655.19
5.23791 86.3129 655.679
7.20097 84.2806 653.175
6.92153 84.6118 653.532
6.64219 84.9478 653.924
6.36291 85.2886 654.351
6.0831 85.627 654.756
5.80295 85.9647 655.154
7.4807 83.9559 652.867
8.05392 84.0041 653.145
7.76698 83.9773 652.985
8.62844 84.0582 653.469
8.63596 84.4067 653.91
8.06079 84.3498 653.566
8.34857 84.3813 653.761
7.77353 84.3214 653.395
7.48712 84.3004 653.28
7.20744 84.6281 653.609
5.52319 86.3137 655.636
4.39296 87.0433 656.928
4.67856 87.0416 656.866
4.96328 87.0245 656.688
4.96589 87.3336 656.812
4.95812 86.6711 656.228
5.24314 86.6639 656.124
5.24822 87.0127 656.55
6.92806 84.9629 653.991
6.64857 85.2997 654.387
6.36871 85.6356 654.773
6.08865 85.9735 655.172
5.80865 86.3166 655.609
5.52849 86.6627 656.066
7.49398 84.6504 653.733
7.21403 84.9776 654.056
6.93443 85.3121 654.434
6.65491 85.6513 654.845
6.37458 85.9842 655.205
7.78084 84.6741 653.867
8.07551 85.0526 654.487
6.09451 86.3247 655.622
5.81419 86.6663 656.044
5.25122 87.3273 656.715
5.53349 87.0072 656.459
5.53805 87.345 656.8
5.82434 87.3529 656.809
5.81899 87.0054 656.396
7.50064 84.9983 654.167
7.22088 85.3303 654.524
6.94119 85.6667 654.913
6.66106 86.0012 655.286
6.38027 86.3307 655.619
6.0999 86.6697 656.021
7.788 85.0256 654.328
7.50798 85.3544 654.661
7.22784 85.6848 655.003
6.94757 86.0169 655.357
7.79573 85.3837 654.836
8.08321 85.4081 654.975
8.37102 85.4339 655.124
6.386 86.678 656.035
6.10526 87.0145 656.416
6.10979 87.3479 656.723
6.39698 87.3667 656.815
6.39159 87.0235 656.435
7.51509 85.7083 655.134
6.95365 86.3637 655.771
6.67217 86.6861 656.047
7.80282 85.7353 655.292
7.52217 86.0622 655.604
8.09072 85.762 655.447
8.6597 85.4665 655.325
8.37849 85.7854 655.577
8.94872 85.5002 655.535
8.66707 85.8151 655.755
6.95905 86.7025 656.122
6.678 87.0326 656.455
6.96469 87.0445 656.495
7.25175 87.0594 656.559
7.24096 86.3854 655.887
7.52874 86.4108 656.031
7.24651 86.7241 656.237
7.81003 86.0883 655.755
8.09782 86.1119 655.885
9.2385 85.5386 655.781
8.9557 85.8434 655.923
8.38547 86.1323 655.991
9.24473 85.8734 656.103
8.67347 86.1545 656.112
7.53452 86.7506 656.388
7.53848 87.0696 656.586
7.82654 87.0934 656.717
7.82218 86.7709 656.493
7.8164 86.4328 656.149
8.10375 86.4498 656.229
8.39149 86.4696 656.33
8.96209 86.1814 656.267
9.25101 86.2091 656.43
8.96856 86.5203 656.617
8.67963 86.4919 656.45
8.1093 86.7839 656.542
8.11395 87.1085 656.782
8.39697 86.8016 656.627
