-44.6874 17.0689 612.12
-44.4293 17.3367 612.126
-44.9519 16.8036 612.202
-44.4096 17.0609 611.836
-44.9684 17.0781 612.445
-44.7106 17.3462 612.457
-44.4547 17.6151 612.497
-45.2345 16.8132 612.546
-44.1396 17.3239 611.676
-44.1628 17.6013 612.018
-44.1908 17.8809 612.427
-45.2522 17.0883 612.807
-45.5019 16.5487 612.665
-44.9949 17.3567 612.826
-43.8596 17.3148 611.356
-43.8754 17.5891 611.597
-44.7385 17.6256 612.859
-45.5161 16.8224 612.875
-44.4818 17.8945 612.889
-44.2253 18.1636 612.924
-45.7794 16.5563 612.938
-43.9009 17.8677 611.973
-43.6148 17.8558 611.567
-43.5915 17.5782 611.22
-43.9326 18.1491 612.435
-43.649 18.1382 612.068
-45.2771 17.3664 613.163
-45.537 17.0987 613.176
-45.795 16.8305 613.165
-46.0407 16.2894 612.972
-46.0547 16.5629 613.178
-45.0226 17.6362 613.224
-43.5849 17.3076 611.108
-43.3125 17.5692 610.909
-43.3297 17.8442 611.173
-43.3626 18.126 611.658
-44.7675 17.9058 613.276
-45.8157 17.1068 613.461
-44.5109 18.1751 613.311
-43.9682 18.4325 612.95
-44.2545 18.4445 613.349
-43.6846 18.4216 612.588
-46.0723 16.8379 613.431
-46.3146 16.2955 613.193
-46.3268 16.5684 613.374
-43.0758 18.1135 611.236
-43.0532 17.8361 610.896
-43.0446 17.5647 610.753
-43.4002 18.4102 612.207
-43.1096 18.3961 611.738
-45.5576 17.3752 613.474
-45.2991 17.6436 613.481
-45.5707 17.6491 613.669
-45.8297 17.3809 613.669
-46.5803 16.0301 613.285
-46.5885 16.3015 613.412
-46.3423 16.8426 613.598
-45.0449 17.9138 613.547
-45.3163 17.9192 613.733
-42.7791 17.8289 610.651
-42.7942 18.1031 610.886
-42.8196 18.382 611.269
-44.79 18.1838 613.605
-45.06 18.1887 613.772
-44.5301 18.4519 613.595
-46.0888 17.1127 613.67
-46.095 17.3839 613.772
-46.3527 17.1152 613.755
-44.7996 18.4567 613.756
-44.2714 18.7205 613.604
-43.7158 18.7036 613.044
-43.9954 18.7129 613.35
-43.4349 18.6937 612.719
-43.7379 18.982 613.375
-44.5418 18.7258 613.776
-44.0121 18.989 613.603
-43.1453 18.6798 612.264
-46.6064 16.8452 613.686
-46.5982 16.5735 613.559
-46.8551 16.3049 613.534
-46.8485 16.034 613.429
-46.8615 16.5758 613.636
-42.5109 18.092 610.509
-42.5039 17.8212 610.388
-42.8848 18.9472 612.243
-42.8512 18.664 611.742
-42.5965 18.9336 611.801
-45.8378 17.6528 613.797
-45.5799 17.9216 613.813
-45.8405 17.9228 613.852
-46.0975 17.6537 613.824
-45.5817 18.1913 613.856
-46.3555 17.3851 613.811
-47.1138 16.037 613.533
-47.1119 15.7678 613.49
-47.1174 16.3068 613.6
-46.6118 17.1159 613.776
-46.8667 16.8463 613.724
-45.3242 18.1914 613.86
-45.3242 18.4604 613.88
-42.5293 18.3677 610.793
-42.2405 18.0861 610.313
-42.5599 18.6491 611.254
-42.3051 18.9184 611.309
-45.0653 18.4599 613.864
-44.805 18.728 613.85
-45.0659 18.7292 613.892
-44.5455 18.9965 613.848
-46.3531 17.653 613.799
-46.6116 17.3846 613.793
-46.8682 17.1156 613.763
-44.8046 18.9969 613.864
-44.2808 18.9936 613.754
-44.2821 19.2633 613.791
-43.4637 18.9749 613.145
-43.1786 18.963 612.757
-43.7517 19.2571 613.589
-42.9166 19.23 612.717
-43.2063 19.2442 613.172
-43.4833 19.2525 613.441
-44.0191 19.2612 613.721
-44.5414 19.2638 613.812
-44.0211 19.5312 613.77
-42.6272 19.2158 612.262
-47.1215 16.8456 613.691
-47.119 16.576 613.639
-47.3732 16.3065 613.581
-47.373 16.0379 613.559
-47.3726 15.7692 613.535
-47.3743 16.5755 613.613
-42.2513 18.3586 610.49
-41.9765 18.3508 610.229
-42.2732 18.6361 610.827
-41.968 18.0794 610.084
-42.3407 19.2028 611.845
-42.3745 19.4868 612.354
-42.0524 19.1888 611.396
-42.0839 19.4717 611.876
-46.0962 17.9221 613.827
-45.8374 18.1905 613.83
-46.0924 18.1895 613.795
-46.3497 17.9205 613.772
-46.6092 17.6525 613.78
-45.581 18.46 613.867
-45.8352 18.4586 613.82
-46.8664 17.3837 613.758
-47.6285 16.0375 613.537
-47.6306 15.7697 613.545
-47.6345 15.5024 613.577
-47.6275 16.3057 613.542
-47.121 17.1141 613.702
-47.375 16.8443 613.641
-45.3226 18.7287 613.877
-45.5785 18.7279 613.853
-41.9947 18.6267 610.516
-41.6961 18.3404 609.885
-42.0231 18.9073 610.949
-41.7628 19.1741 610.924
-45.0621 18.9967 613.861
-45.3175 18.9956 613.828
-44.7995 19.2638 613.815
-46.6042 17.9194 613.734
-46.8651 17.652 613.76
-47.1213 17.3829 613.725
-45.0554 19.2629 613.789
-44.2809 19.5319 613.796
-44.5376 19.5313 613.78
-43.2246 19.5214 613.452
-42.9435 19.511 613.122
-42.6566 19.4979 612.706
-43.7607 19.5302 613.736
-43.4957 19.5272 613.637
-43.7637 19.8008 613.799
-42.6825 19.7787 613.098
-42.9622 19.7886 613.409
-44.7949 19.5309 613.772
-44.0209 19.8003 613.787
-44.2781 19.7998 613.777
-42.1188 19.7566 612.404
-47.3729 17.1122 613.632
-47.6272 16.5741 613.557
-47.8819 16.305 613.508
-47.8833 16.0369 613.507
-47.8845 15.7688 613.503
-47.6273 16.8427 613.577
-41.7093 18.614 610.1
-41.732 18.8921 610.453
-41.4242 18.3338 609.662
-41.7956 19.4575 611.425
-41.828 19.7412 611.92
-42.4022 19.7685 612.776
-41.8605 20.0253 612.417
-41.539 19.7264 611.458
-46.345 18.1876 613.73
-46.0898 18.4573 613.78
-46.3432 18.4557 613.726
-46.5996 18.1864 613.692
-46.8617 17.9195 613.735
-45.8326 18.7264 613.805
-46.0866 18.7249 613.757
-47.1234 17.6524 613.772
-47.8891 15.5019 613.544
-48.1364 15.7674 613.438
-47.8993 15.2366 613.657
-48.1412 15.5005 613.48
-48.1508 15.2351 613.584
-47.8806 16.573 613.509
-47.3753 17.3818 613.683
-47.6282 17.1117 613.608
-45.5732 18.9947 613.801
-45.8298 18.9942 613.786
-41.433 18.6053 609.812
-41.4513 18.8813 610.103
-41.1572 18.5967 609.531
-41.5037 19.4415 610.918
-41.4743 19.1597 610.463
-41.2236 19.4308 610.579
-45.3135 19.263 613.794
-45.5718 19.2631 613.801
-45.0518 19.5304 613.76
-46.8615 18.1882 613.751
-47.1244 17.9216 613.804
-47.383 17.6533 613.801
-47.6351 17.3828 613.716
-45.3123 19.5315 613.798
-44.5333 19.7984 613.739
-44.7893 19.7975 613.715
-43.2373 19.7963 613.653
-43.5028 19.7996 613.757
-43.2399 20.0668 613.71
-42.7008 20.0564 613.383
-42.4247 20.048 613.122
-43.5005 20.0678 613.746
-43.759 20.0679 613.754
-44.0155 20.067 613.732
-42.9726 20.0627 613.58
-42.4386 20.3238 613.344
-42.1471 20.0389 612.837
-42.9754 20.3332 613.64
-42.7085 20.3292 613.514
-45.0508 19.799 613.766
-44.272 20.0662 613.712
-44.529 20.0656 613.701
-41.8867 20.3069 612.821
-41.5734 20.0114 611.986
-47.8894 17.1132 613.66
-47.8813 16.8418 613.536
-48.1403 16.5741 613.542
-48.1367 16.3044 613.478
-48.1355 16.0355 613.445
-48.3953 16.3051 613.498
-41.1716 18.8709 609.765
-41.1936 19.1488 610.112
-40.8807 18.5878 609.235
-41.2534 19.7131 611.042
-41.2837 19.9961 611.512
-42.1662 20.3171 613.135
-41.6037 20.2948 612.453
-41.6258 20.5747 612.801
-41.3163 20.2806 612.017
-41.0008 19.9839 611.134
-46.6001 18.4554 613.718
-46.3427 18.7243 613.738
-46.6043 18.7259 613.792
-46.867 18.4591 613.841
-47.131 18.1928 613.908
-46.0861 18.9936 613.769
-46.3461 18.9946 613.803
-47.3948 17.9265 613.973
-48.3906 15.4983 613.383
-48.3893 15.7663 613.385
-48.3888 16.0345 613.397
-48.645 15.7661 613.37
-48.3974 15.2321 613.452
-48.411 14.9679 613.605
-48.6446 15.2293 613.328
-48.1464 16.8447 613.639
-47.6516 17.6576 613.947
-47.9118 17.3899 613.965
-45.8316 19.264 613.831
-46.0923 19.2651 613.871
-40.889 18.8591 609.381
-40.9049 19.134 609.639
-40.9685 19.7 610.63
-40.9337 19.4154 610.09
-40.7091 19.9672 610.62
-45.5736 19.5329 613.845
-45.8366 19.535 613.916
-45.3144 19.8014 613.845
-47.1448 18.4671 614.107
-45.5794 19.8044 613.943
-44.7876 20.0658 613.712
-45.0574 20.071 613.875
-43.2358 20.3341 613.673
-43.4943 20.3341 613.68
-42.7102 20.5993 613.559
-42.4455 20.5963 613.464
-42.1767 20.5913 613.309
-43.7506 20.3331 613.656
-44.0092 20.3332 613.665
-44.269 20.334 613.692
-42.9727 20.6012 613.623
-42.4441 20.8649 613.465
-42.1797 20.862 613.374
-41.905 20.5849 613.111
-43.2307 20.6009 613.621
-42.7058 20.8664 613.518
-45.326 20.0756 614.022
-44.5304 20.3354 613.74
-44.7937 20.3377 613.815
-41.6406 20.8512 613.04
-41.0319 20.2676 611.618
-41.0605 20.5505 612.066
-48.1673 17.1207 613.923
-48.4094 16.5783 613.695
-48.6524 16.0369 613.481
-40.6063 18.8471 608.991
-40.6196 19.1207 609.211
-40.3392 19.1095 608.852
-40.7433 20.2524 611.154
-41.9135 20.8583 613.257
-41.3451 20.5636 612.464
-41.3655 20.8428 612.789
-41.3769 21.1177 612.979
-41.6473 21.1237 613.16
-40.7756 20.5371 611.661
-41.0859 20.8321 612.467
-40.4879 20.522 611.206
-40.4528 20.236 610.656
-46.8778 18.7323 614.002
-46.6171 19 613.98
-47.4135 18.2025 614.233
-46.3585 19.2686 613.985
-48.6421 15.4969 613.315
-48.9034 15.4985 613.371
-48.9152 15.7706 613.536
-48.6583 14.9653 613.483
-48.8988 15.2288 613.295
-48.9063 14.9629 613.371
-48.9227 14.6995 613.559
-49.1648 15.232 613.41
-46.1045 19.5393 614.053
-40.6454 19.4006 609.621
-40.3619 19.3878 609.217
-40.6744 19.6823 610.077
-40.3921 19.6701 609.695
-40.4216 19.9524 610.162
-40.1688 20.2228 610.251
-45.8464 19.8083 614.068
-46.121 19.8154 614.293
-45.5928 20.0794 614.143
-46.9038 19.0118 614.362
-45.8637 20.085 614.319
-45.0665 20.3442 614.019
-45.3393 20.3507 614.222
-43.4884 20.6005 613.617
-43.7454 20.5999 613.603
-42.9668 20.8676 613.559
-42.4389 21.1315 613.411
-42.1777 21.1303 613.367
-44.0061 20.601 613.642
-44.2705 20.6037 613.731
-44.5351 20.6067 613.825
-43.2249 20.8673 613.559
-42.7015 21.1335 613.476
-41.9136 21.1276 613.28
-42.1731 21.3972 613.321
-43.484 20.8676 613.575
-42.9605 21.1337 613.489
-45.608 20.3554 614.368
-44.8037 20.6114 613.972
-45.076 20.6178 614.169
-41.6463 21.3924 613.167
-41.3804 21.3887 613.053
-40.5192 20.8066 611.702
-40.8052 20.8208 612.126
-40.8276 21.1013 612.485
-40.067 19.1022 608.615
-40.0848 19.3781 608.908
-40.1082 19.657 609.286
-39.8047 19.3668 608.549
-39.8247 19.644 608.877
-40.2021 20.5078 610.777
-41.91 21.395 613.249
-41.1054 21.1111 612.78
-41.1145 21.385 612.937
-41.3759 21.6556 613.007
-41.1135 21.6537 612.943
-41.6397 21.6582 613.092
-40.2338 20.7926 611.282
-40.2623 21.076 611.737
-40.8428 21.3782 612.735
-40.5476 21.0901 612.153
-39.9464 20.7773 610.827
-39.9146 20.4926 610.318
-46.6381 19.2776 614.275
-46.3772 19.5455 614.252
-49.1583 14.9617 613.31
-49.1686 14.6965 613.421
-49.4284 14.966 613.476
-49.1907 14.4348 613.678
-49.4253 14.6969 613.42
-49.442 14.4335 613.609
-40.1371 19.939 609.746
-39.8515 19.9249 609.309
-39.8817 20.2078 609.792
-39.629 20.4782 609.882
-39.6606 20.7627 610.39
-46.4087 19.828 614.688
-46.1495 20.097 614.692
-45.8885 20.3652 614.67
-45.3505 20.6251 614.393
-45.6283 20.6338 614.66
-43.7457 20.8692 613.628
-44.0081 20.8711 613.69
-43.2215 21.1349 613.532
-42.4349 21.3988 613.374
-42.6988 21.4014 613.458
-44.2766 20.8758 613.836
-44.5453 20.8806 613.986
-44.8166 20.8866 614.169
-43.4867 21.1381 613.633
-42.1688 21.6643 613.28
-42.4329 21.667 613.366
-41.9037 21.661 613.178
-42.1674 21.9327 613.28
-43.7552 21.143 613.782
-42.9545 21.6691 613.445
-45.3633 20.9003 614.586
-45.0873 20.8922 614.342
-41.3688 21.921 612.924
-39.9768 21.0617 611.314
-40.2872 21.358 612.137
-40.5681 21.3698 612.484
-40.5752 21.6426 612.613
-40.8466 21.6494 612.814
-39.5287 19.3574 608.249
-39.5435 19.6319 608.498
-39.5676 19.9114 608.892
-39.266 19.6216 608.175
-39.2877 19.8998 608.533
-39.6911 21.0471 610.882
-41.1065 21.9191 612.861
-41.6312 21.9229 612.987
-40.8437 21.917 612.791
-41.8994 21.928 613.137
-39.7177 21.3298 611.314
-40.0041 21.3449 611.754
-40.0226 21.6237 612.058
-40.5767 21.9125 612.657
-40.3016 21.6347 612.379
-39.4071 21.0333 610.473
-39.4359 21.3172 610.942
-39.3759 20.7486 609.967
-39.5973 20.1941 609.372
-39.3164 20.182 609
-39.346 20.465 609.481
-39.0912 20.7342 609.538
-39.1201 21.0177 610.012
-39.15 21.302 610.5
-45.1031 21.169 614.578
-44.0184 21.1452 613.855
-44.287 21.15 614.002
-43.4873 21.4077 613.663
-42.6975 21.67 613.46
-44.5574 21.1556 614.172
-44.8286 21.1616 614.353
-43.7677 21.4183 613.977
-42.4358 21.9377 613.43
-42.7008 21.941 613.529
-41.8957 22.1952 613.103
-42.1698 22.2033 613.336
-42.4419 22.2103 613.54
-44.0291 21.4197 614.024
-42.9581 21.9402 613.518
-45.1241 21.4485 614.884
-41.3612 22.1862 612.833
-41.6238 22.1882 612.9
-41.0993 22.1845 612.776
-39.7427 21.6121 611.721
-40.0358 21.8999 612.283
-40.3086 21.9075 612.507
-40.572 22.1792 612.609
-40.3074 22.176 612.51
-40.8372 22.1827 612.716
-39.2576 19.3502 608.021
-38.9894 19.6116 607.86
-39.0043 19.8864 608.116
-39.0321 20.168 608.572
-38.727 19.8758 607.788
-38.7479 20.1538 608.14
-41.893 22.463 613.085
-39.4605 21.5991 611.345
-39.1799 21.5869 610.989
-39.4814 21.8794 611.692
-39.7607 21.8908 612.021
-39.7673 22.1635 612.145
-40.0395 22.171 612.362
-40.5641 22.444 612.512
-38.8625 21.2859 610.03
-38.8955 21.5724 610.571
-39.2042 21.869 611.391
-38.8326 21.0016 609.537
-39.0638 20.452 609.088
-38.7765 20.4362 608.612
-38.8051 20.719 609.083
-38.5767 21.2705 609.58
-38.6108 21.5576 610.142
-44.8422 21.4375 614.56
-44.5691 21.4306 614.354
-44.2964 21.4238 614.152
-44.5809 21.7058 614.537
-44.041 21.6949 614.21
-42.7077 22.2138 613.649
-42.9781 22.2198 613.824
-41.619 22.4548 612.851
-42.1762 22.476 613.451
-42.4474 22.4825 613.64
-42.719 22.4892 613.832
-44.3114 21.7005 614.379
-44.8697 21.7202 614.956
-41.355 22.452 612.763
-41.0937 22.4506 612.715
-40.8286 22.4471 612.608
-41.0956 22.7208 612.765
-39.4942 22.1555 611.913
-40.035 22.4375 612.315
-39.7673 22.4325 612.168
-40.2991 22.4405 612.407
-40.2939 22.7067 612.35
-38.7207 19.6055 607.667
-38.4495 19.8651 607.455
-38.4662 20.1408 607.742
-38.4919 20.4216 608.171
-38.206 20.4062 607.705
-41.9052 22.7388 613.285
-41.6256 22.7275 612.97
-38.9245 21.8571 611.048
-39.219 22.1461 611.645
-38.6399 21.8423 610.626
-38.9444 22.137 611.384
-39.2276 22.4199 611.802
-39.4985 22.4269 612.003
-39.761 22.698 612.093
-40.0284 22.7029 612.237
-40.56 22.7108 612.473
-40.8263 22.715 612.597
-40.5599 22.9798 612.493
-38.3243 21.5415 609.679
-38.3555 21.8274 610.198
-38.9578 22.4136 611.618
-38.5458 20.9857 609.069
-38.2928 21.256 609.154
-38.5193 20.7037 608.627
-38.2611 20.9708 608.628
-38.0343 21.5233 609.155
-38.0667 21.8098 609.697
-38.0973 22.0957 610.211
-44.3296 21.9791 614.653
-44.0633 21.9754 614.542
-42.4535 22.7552 613.749
-43.001 22.5012 614.173
-42.7322 22.7656 614.043
-41.3596 22.7236 612.852
-42.4566 23.0263 613.815
-42.733 23.0357 614.076
-44.3531 22.2604 614.998
-40.8308 22.9866 612.686
-39.4932 22.6928 611.942
-39.2271 22.6886 611.817
-39.7525 22.9621 611.985
-40.2913 22.9743 612.333
-40.0209 22.9677 612.144
-40.2945 23.2452 612.403
-38.1733 19.8549 607.138
-38.183 20.1269 607.316
-37.9219 20.3915 607.262
-38.233 20.688 608.157
-37.9774 20.9562 608.198
-37.9493 20.6735 607.725
-37.6921 20.9406 607.736
-41.9221 23.0174 613.554
-42.1911 23.0228 613.71
-41.6547 23.2822 613.441
-38.6648 22.125 611.041
-38.6824 22.4039 611.343
-38.3843 22.1123 610.68
-38.9599 22.6837 611.674
-38.4025 22.3915 610.993
-38.6896 22.6769 611.48
-39.2188 22.9527 611.71
-39.4838 22.9564 611.82
-40.0204 23.2364 612.159
-40.5664 23.2527 612.612
-40.3012 23.5183 612.528
-37.8048 22.0757 609.648
-38.1211 22.378 610.616
-37.8332 22.3606 610.13
-38.9542 22.9493 611.607
-38.0066 21.24 608.689
-37.777 21.7915 609.176
-37.7192 21.2232 608.198
-37.7484 21.5073 608.691
-37.5176 22.0585 609.164
-37.5465 22.3437 609.656
-37.8568 22.6431 610.533
-44.0825 22.2547 614.83
-42.4696 23.3029 614.024
-42.2001 23.2973 613.862
-41.9371 23.2952 613.794
-42.2114 23.5732 614.048
-40.5797 23.5296 612.836
-39.7484 23.2288 611.945
-39.476 23.2207 611.721
-39.7479 23.4975 611.959
-40.0248 23.5081 612.249
-37.9014 20.1137 606.911
-37.6634 20.6576 607.251
-37.389 20.6479 606.958
-37.4052 20.9239 607.244
-37.4577 21.4882 608.144
-37.4279 21.2039 607.636
-37.1509 21.1925 607.303
-41.6778 23.5647 613.803
-41.4006 23.5545 613.524
-41.9501 23.5721 614.007
-41.4181 23.8342 613.806
-38.4141 22.667 611.201
-38.6887 22.9453 611.489
-38.4185 22.9384 611.294
-38.1381 22.6567 610.911
-38.9454 23.213 611.491
-38.146 22.9302 611.062
-38.6805 23.2093 611.382
-39.2096 23.2162 611.589
-39.4718 23.4872 611.679
-40.3099 23.7926 612.682
-40.0308 23.7807 612.363
-37.5716 22.627 610.088
-37.2859 22.6104 609.628
-37.872 22.9209 610.802
-37.5926 22.9082 610.452
-37.4897 21.7743 608.686
-37.2602 22.3268 609.185
-37.232 22.0421 608.7
-37.2003 21.7557 608.157
-36.9987 22.5926 609.139
-36.9747 22.3101 608.719
-37.3099 22.8934 610.046
-37.0225 22.8754 609.556
-37.6035 23.1835 610.654
-37.8774 23.1929 610.913
-42.2239 23.8498 614.25
-41.957 23.8456 614.128
-41.6922 23.8426 614.036
-40.592 23.8061 613.044
-39.7513 23.7685 612.034
-39.2 23.4794 611.462
-39.4737 23.7572 611.731
-37.1114 20.3695 606.585
-37.1206 20.6414 606.759
-37.1327 20.9151 606.982
-36.8535 20.9024 606.606
-36.8756 21.182 606.993
-37.1732 21.4726 607.692
-36.9231 21.7441 607.823
-36.8985 21.4624 607.393
-36.6199 21.4498 607.029
-41.163 24.1063 613.878
-41.4349 24.1136 614.077
-41.7036 24.1189 614.225
-41.1645 24.377 613.923
-38.4154 23.2055 611.269
-38.147 23.1996 611.101
-38.4082 23.4699 611.176
-38.9362 23.4763 611.37
-38.6717 23.4728 611.266
-38.9344 23.7441 611.365
-38.1425 23.4656 611.052
-39.2 23.7483 611.486
-37.3263 23.172 610.337
-37.046 23.1584 609.966
-36.7641 23.1436 609.564
-37.8745 23.4598 610.889
-37.6062 23.4539 610.721
-37.3347 23.4458 610.498
-36.9498 22.0275 608.286
-36.7187 22.5791 608.762
-36.694 22.2962 608.329
-36.6687 22.0133 607.885
-36.7401 22.8604 609.142
-36.4636 22.8488 608.823
-36.4373 22.5645 608.359
-37.0616 23.4367 610.247
-36.4875 23.132 609.246
-36.7838 23.4244 609.915
-37.601 23.7193 610.661
-37.8677 23.7244 610.804
-41.9692 24.1224 614.328
-42.2524 24.1359 614.686
-36.8377 20.36 606.298
-36.8408 20.6284 606.372
-36.57 20.6204 606.129
-36.5788 20.8922 606.299
-36.597 21.1695 606.625
-36.3431 21.4381 606.689
-36.6439 21.7311 607.45
-36.386 21.9981 607.454
-36.4109 22.2807 607.894
-36.3657 21.7186 607.091
-36.0848 21.7043 606.681
-41.4488 24.3915 614.304
-41.1857 24.6594 614.26
-41.7199 24.3982 614.487
-41.4622 24.6694 614.525
-38.1359 23.7303 610.97
-38.4016 23.7346 611.095
-38.6678 23.7392 611.227
-37.3322 23.7129 610.481
-37.063 23.7062 610.295
-36.7939 23.6994 610.107
-36.5069 23.4126 609.593
-36.2297 23.4004 609.265
-36.5215 23.6904 609.862
-37.5908 23.9816 610.519
-37.3249 23.9769 610.386
-36.1809 22.8332 608.396
-36.1553 22.5494 607.94
-36.1319 22.2674 607.521
-36.2065 23.1174 608.849
-35.9269 23.1036 608.473
-35.9021 22.8199 608.028
-37.059 23.9722 610.252
-36.7936 23.9677 610.125
-36.247 23.68 609.581
-35.9492 23.386 608.875
-36.5255 23.9615 609.954
-37.8595 23.9879 610.696
-38.1295 23.9951 610.891
-41.9967 24.4082 614.753
-36.3041 20.6151 605.965
-36.3064 20.883 606.027
-36.3216 21.1586 606.305
-36.0357 20.8749 605.782
-36.0453 21.1471 605.969
-36.0629 21.4243 606.289
-36.1077 21.9853 607.091
-35.8517 22.2533 607.126
-35.8778 22.5369 607.591
-35.8268 21.9707 606.679
-35.804 21.6898 606.268
-35.5471 21.9567 606.282
-38.126 24.2616 610.858
-38.4025 24.2728 611.155
-37.0518 24.2361 610.158
-36.7848 24.2305 610.004
-36.2533 23.9526 609.712
-35.9683 23.6667 609.224
-35.981 23.9434 609.463
-36.5203 24.2266 609.891
-36.2537 24.2213 609.742
-37.585 24.2465 610.448
-37.8568 24.2549 610.676
-37.317 24.2403 610.28
-37.5819 24.5131 610.422
-35.6498 23.0912 608.134
-35.6252 22.8076 607.689
-35.5983 22.5231 607.206
-35.6698 23.3721 608.5
-35.3924 23.3593 608.155
-35.6885 23.6524 608.843
-35.3704 23.0771 607.75
-36.7767 24.4937 609.894
-35.985 24.2145 609.556
-35.7053 23.9318 609.155
-35.4119 23.6402 608.515
-36.5124 24.4899 609.784
-38.1328 24.5347 610.99
-35.7671 20.8678 605.569
-35.7734 21.1381 605.702
-35.7864 21.4124 605.945
-35.5262 21.6771 605.902
-35.5718 22.2391 606.729
-35.3181 22.5085 606.802
-35.3458 22.7936 607.303
-35.2918 22.2248 606.326
-35.2678 21.9428 605.888
-35.0126 22.2107 605.93
-38.4112 24.5473 611.318
-38.6897 24.2907 611.619
-37.0433 24.499 610.041
-37.3075 24.5027 610.149
-36.2482 24.4861 609.674
-35.7158 24.2072 609.359
-35.982 24.4808 609.529
-35.7157 24.4756 609.383
-36.2394 24.7485 609.551
-37.5773 24.7787 610.371
-37.3043 24.7692 610.121
-37.3198 25.0481 610.399
-35.1135 23.3453 607.778
-35.0904 23.0625 607.353
-35.065 22.7785 606.889
-35.4283 23.9192 608.82
-35.134 23.6269 608.159
-35.153 23.9077 608.513
-34.8551 23.6127 607.782
-35.4422 24.1969 609.086
-34.8337 23.3306 607.383
-36.7688 24.7569 609.787
-37.0387 24.7645 609.99
-36.5018 24.7512 609.632
-36.7604 25.0197 609.673
-35.9743 24.744 609.424
-35.4466 24.4682 609.186
-35.1678 24.1859 608.795
-34.8743 23.8936 608.142
-35.4921 21.1233 605.27
-35.5066 21.3985 605.542
-35.2211 21.1146 605.01
-35.2458 21.6625 605.485
-34.9897 21.9295 605.51
-35.0374 22.4935 606.385
-34.7838 22.7629 606.461
-34.8111 23.0481 606.963
-34.7572 22.4786 605.973
-34.7335 22.1965 605.534
-34.4783 22.4643 605.576
-38.6973 24.5645 611.763
-37.0454 25.0375 610.124
-35.709 24.7393 609.294
-35.4435 24.7344 609.158
-35.7017 25.0026 609.195
-36.2314 25.0114 609.441
-36.4975 25.0166 609.584
-35.9672 25.0075 609.329
-34.5761 23.5983 607.397
-34.5536 23.3155 606.976
-34.5293 23.0319 606.523
-35.1756 24.4595 608.955
-34.8923 24.174 608.48
-34.5961 23.8797 607.773
-34.9052 24.4512 608.731
-34.6157 24.1612 608.144
-34.3183 23.8659 607.409
-35.1756 24.7278 608.98
-34.2959 23.5828 606.986
-35.435 24.9968 609.037
-34.907 24.7207 608.789
-34.6312 24.4402 608.442
-35.2291 21.3858 605.173
-34.9581 21.3769 604.912
-34.9687 21.6499 605.122
-34.6855 21.3669 604.621
-34.695 21.6391 604.811
-34.7109 21.9156 605.115
-34.4564 22.1834 605.166
-34.504 22.748 606.054
-34.2493 23.0166 606.11
-34.2728 23.2997 606.552
-34.227 22.7348 605.69
-34.2032 22.4523 605.242
-33.9482 22.7202 605.288
-35.1682 24.9909 608.877
-35.6951 25.2663 609.107
-35.4265 25.2591 608.916
-35.6939 25.5338 609.111
-35.9654 25.543 609.349
-34.3365 24.1464 607.757
-34.0393 23.8511 607.017
-34.0186 23.5693 606.622
-33.9959 23.2864 606.192
-34.6393 24.714 608.609
-34.3551 24.4275 608.111
-34.0603 24.1335 607.418
-34.9026 24.9858 608.736
-34.6378 24.9812 608.61
-34.3671 24.7041 608.35
-34.079 24.4147 607.777
-33.7828 24.1196 607.052
-35.1597 25.2531 608.756
-33.762 23.8373 606.652
-34.8937 25.2476 608.607
-34.37 24.9744 608.428
-34.4206 21.6278 604.487
-34.4356 21.9036 604.775
-34.1514 21.6197 604.25
-34.1625 21.893 604.471
-34.1809 22.1712 604.823
-33.9234 22.4371 604.821
-33.9739 23.0044 605.774
-33.7184 23.2725 605.816
-33.7415 23.5556 606.257
-33.6953 22.9897 605.374
-33.6717 22.7069 604.924
-33.4196 22.9768 605.024
-33.4392 23.2572 605.405
-35.4232 25.525 608.885
-35.7002 25.8066 609.242
-35.1518 25.5155 608.643
-35.4261 25.7953 608.959
-35.9715 25.8158 609.476
-35.7139 26.085 609.501
-34.0925 24.6923 608.044
-33.8024 24.4013 607.43
-33.504 24.1045 606.658
-33.4843 23.823 606.274
-33.4611 23.5394 605.828
-34.6283 25.2425 608.468
-34.1 24.9658 608.204
-33.5257 24.3877 607.078
-33.8191 24.6813 607.757
-34.3658 25.2395 608.379
-34.1038 25.2368 608.299
-33.5484 24.6721 607.514
-33.8325 24.9591 608.023
-33.2524 24.3764 606.781
-34.8846 25.5091 608.474
-35.1505 25.7828 608.647
-33.2291 24.092 606.328
-34.6205 25.5049 608.357
-34.8809 25.7746 608.435
-34.3613 25.5043 608.324
-33.8961 21.8865 604.282
-33.9068 22.1597 604.498
-33.6339 22.1489 604.192
-33.6491 22.4254 604.493
-33.3974 22.695 604.595
-33.1837 23.5251 605.446
-33.2062 23.8082 605.884
-33.1624 23.2433 605.032
-33.1421 22.9625 604.635
-32.9036 23.5087 605.011
-35.4384 26.0727 609.196
-35.1555 26.0547 608.758
-35.9921 26.0992 609.849
-33.5716 24.9572 607.961
-33.2836 24.6671 607.376
-32.9913 24.374 606.706
-32.9597 24.0833 606.097
-32.9322 23.7962 605.565
-34.6185 25.7716 608.347
-33.8469 25.2379 608.309
-34.1086 25.5085 608.409
-33.3219 24.9636 608.102
-33.8648 25.5196 608.658
-33.6009 25.2472 608.518
-33.0358 24.6748 607.551
-34.8826 26.044 608.49
-34.3635 25.7741 608.391
-34.6263 26.0456 608.51
-34.1194 25.7849 608.629
-33.37 22.4102 604.074
-34.8969 26.323 608.766
-34.6486 26.3308 608.928
-34.3801 26.0549 608.711
