-40.1047 -7.75928 567.186
-40.328 -7.50628 566.992
-42.4006 -5.49538 566.192
-42.1515 -5.49601 566.039
-42.4077 -5.24898 566.305
-41.6694 -5.74656 565.927
-41.4362 -5.99657 565.969
-41.2067 -6.24724 566.064
-40.9599 -6.24805 565.939
-40.5308 -7.00233 566.533
-41.9064 -5.49713 565.937
-42.1557 -5.24928 566.113
-41.6586 -5.4979 565.798
-41.9079 -5.2501 565.976
-41.4206 -5.74715 565.775
-41.1886 -5.9973 565.834
-40.3049 -7.25435 566.685
-40.0815 -7.50707 566.877
-40.7342 -6.49946 566.089
-40.7142 -6.24903 565.83
-40.4903 -6.50071 566.005
-40.5104 -6.75137 566.266
-40.2835 -7.00301 566.404
-39.8581 -7.76003 567.071
-41.7307 -4.02151 566.888
-41.4979 -3.77623 566.977
-41.9538 -4.51325 566.649
-41.2619 -3.53057 567.025
-41.9375 -4.75895 566.411
-41.7147 -4.26757 566.651
-41.0302 -3.28517 567.133
-42.1722 -5.00396 566.353
-41.7005 -4.51361 566.441
-41.4761 -4.02189 566.662
-40.7786 -3.286 566.948
-40.3112 -3.04261 567.096
-47.9597 2.7722 582.385
-47.7182 3.02519 582.428
-47.4737 3.27807 582.435
-47.2106 3.2754 582.196
-46.9505 3.27292 581.991
-45.8617 3.2595 580.549
-46.1573 3.51842 581.226
-45.3083 2.99876 579.674
-45.6012 3.25693 580.328
-46.433 3.52217 581.63
-45.89 3.51529 580.924
-46.1884 3.77487 581.635
-45.3386 3.25421 580.079
-46.7096 3.52598 582.043
-46.4634 3.77871 582.029
-45.6281 3.51256 580.688
-45.0679 3.2509 579.725
-39.436 -1.06728 568.387
-39.6562 -1.56213 568.076
-39.8787 -2.05649 567.804
-39.1995 -0.820308 568.444
-39.4151 -1.31527 568.066
-39.1817 -1.06857 568.167
-39.6336 -1.80961 567.734
-39.8542 -2.30342 567.436
-40.0785 -2.7969 567.196
-40.533 -3.28731 566.845
-39.8306 -2.5501 567.082
-44.0452 3.49503 579.08
-44.3273 3.75279 579.61
-44.8288 3.50324 579.792
-44.5879 3.75555 579.839
-43.7879 3.49258 578.888
-44.0682 3.75015 579.4
-43.8108 3.74764 579.21
-39.834 -7.50764 566.746
-41.4103 -5.4986 565.653
-41.6564 -5.25045 565.788
-41.1744 -5.74808 565.657
-40.9423 -5.9982 565.715
-40.6982 -5.99941 565.625
-40.4718 -6.2505 565.765
-40.2647 -6.75232 566.158
-40.058 -7.25508 566.564
-41.9204 -5.00435 566.162
-41.4066 -5.25099 565.62
-41.6659 -5.0044 565.934
-41.1632 -5.49944 565.522
-40.9275 -5.74891 565.528
-40.0356 -7.00355 566.266
-39.5893 -7.50876 566.656
-40.2469 -6.50203 565.928
-40.4565 -6.00098 565.57
-40.2287 -6.25185 565.689
-40.0014 -6.50301 565.82
-40.0182 -6.75313 566.039
-39.8102 -7.25561 566.427
-39.3458 -7.51008 566.581
-41.4606 -4.26791 566.431
-41.2385 -3.77624 566.684
-41.0056 -3.53094 566.775
-41.6834 -4.75914 566.19
-41.4458 -4.5138 566.21
-41.2222 -4.02231 566.442
-41.2079 -4.26838 566.228
-40.7548 -3.53178 566.599
-40.2845 -3.28839 566.702
-40.0569 -3.04329 566.871
-47.7475 3.28147 582.802
-47.5025 3.53451 582.805
-47.2389 3.53173 582.562
-46.9777 3.52912 582.346
-45.365 3.50972 580.435
-45.9186 3.77143 581.302
-45.654 3.76842 581.035
-45.0978 3.50656 580.127
-46.2192 4.03164 582.04
-45.3919 3.76559 580.797
-45.6778 4.02439 581.355
-45.9466 4.02786 581.675
-45.9738 4.28453 582.037
-45.125 3.76235 580.495
-46.7375 3.78244 582.407
-46.4922 4.03544 582.406
-46.2474 4.28853 582.412
-45.418 4.02169 581.147
-38.9453 -0.821673 568.225
-39.3898 -1.5628 567.681
-39.609 -2.05668 567.362
-38.7097 -0.574694 568.297
-38.9236 -1.06975 567.889
-38.6883 -0.822975 567.964
-39.1553 -1.31629 567.763
-39.3671 -1.81012 567.336
-39.1284 -1.56365 567.355
-39.5836 -2.30338 566.979
-39.8111 -2.79674 566.785
-40.5062 -3.53279 566.452
-39.5611 -2.54993 566.637
-44.0897 4.00541 579.701
-44.3504 4.00825 579.93
-43.8321 4.00284 579.509
-44.6133 4.01128 580.187
-43.5976 4.25584 579.642
-39.568 -7.25716 566.37
-41.1561 -5.25143 565.442
-41.4133 -5.00466 565.729
-40.9162 -5.50028 565.39
-40.6843 -5.75027 565.451
-40.4411 -5.75162 565.373
-40.2135 -6.00235 565.495
-39.9851 -6.25314 565.608
-39.7748 -6.75445 565.962
-39.7919 -7.00482 566.185
-41.1597 -5.00478 565.51
-41.4297 -4.75935 565.972
-40.908 -5.25216 565.297
-40.6716 -5.50144 565.293
-39.5495 -7.00632 566.124
-39.3259 -7.25873 566.314
-39.1041 -7.51174 566.533
-40.198 -5.75297 565.296
-39.9693 -6.00355 565.404
-39.7588 -6.50444 565.752
-39.7408 -6.25431 565.516
-39.515 -6.50569 565.669
-39.5333 -6.75609 565.912
-39.0842 -7.26037 566.263
-38.8408 -7.2617 566.189
-39.3083 -7.00804 566.08
-41.1933 -4.51422 566.009
-40.9844 -3.77672 566.463
-40.9545 -4.26876 566.013
-40.9675 -4.02264 566.211
-40.7337 -3.7775 566.287
-40.9394 -4.51446 565.786
-40.7158 -4.02326 566.02
-40.257 -3.53375 566.296
-40.0314 -3.28907 566.491
-39.7926 -3.0432 566.502
-47.5329 3.7914 583.194
-47.2645 3.78817 582.894
-47.0041 3.78556 582.689
-47.2926 4.04512 583.258
-44.8795 4.01459 580.483
-45.153 4.01853 580.872
-45.7034 4.28081 581.698
-45.442 4.27792 581.473
-45.9984 4.54127 582.366
-45.1825 4.27519 581.269
-45.727 4.53734 582.017
-45.4648 4.5343 581.782
-45.7567 4.79478 582.412
-44.9102 4.27122 580.898
-46.7661 4.03929 582.78
-46.5247 4.29285 582.831
-46.2792 4.5461 582.829
-46.0309 4.79912 582.794
-38.4546 -0.576114 568.062
-38.8966 -1.31735 567.475
-39.3431 -2.05706 566.97
-39.1044 -1.81077 566.987
-38.2169 -0.329086 568.105
-38.431 -0.824266 567.695
-38.198 -0.577508 567.804
-38.6645 -1.07089 567.594
-38.8702 -1.56461 567.07
-38.6379 -1.3184 567.184
-39.3192 -2.30368 566.605
-39.0809 -2.0576 566.626
-39.5449 -2.79663 566.386
-40.4818 -3.77815 566.092
-39.299 -2.55024 566.296
-39.0596 -2.30425 566.298
-43.8553 4.25849 579.835
-44.1151 4.26132 580.053
-44.3766 4.26429 580.29
-43.6196 4.51161 579.954
-43.879 4.51446 580.166
-43.3902 4.76558 580.158
-40.908 -5.00512 565.314
-41.1753 -4.75947 565.743
-40.662 -5.25316 565.179
-40.427 -5.50259 565.194
-40.1826 -5.50377 565.098
-39.9534 -5.75411 565.198
-39.7245 -6.00464 565.303
-39.2904 -6.75748 565.841
-40.9198 -4.75944 565.497
-40.657 -5.00553 565.127
-40.415 -5.25401 565.045
-39.0661 -7.00957 566.021
-39.9371 -5.50479 564.986
-39.7075 -5.75505 565.081
-39.4973 -6.25561 565.436
-39.272 -6.50706 565.596
-39.4808 -6.0059 565.218
-39.2547 -6.25702 565.366
-38.822 -7.01077 565.935
-39.0468 -6.75875 565.761
-38.3348 -7.01331 565.776
-40.7005 -4.26905 565.788
-40.4629 -4.02374 565.81
-40.6822 -4.51432 565.515
-40.2322 -3.77901 565.928
-40.4471 -4.2694 565.569
-40.0036 -3.53432 566.078
-39.7714 -3.28918 566.181
-39.53 -3.04321 566.154
-47.0294 4.04221 583.02
-47.322 4.30249 583.637
-47.0576 4.29941 583.387
-46.796 4.29658 583.17
-44.4006 4.52043 580.622
-44.668 4.52407 580.934
-45.2047 4.53145 581.572
-44.9405 4.52818 581.308
-45.4907 4.79128 582.131
-44.9641 4.78479 581.63
-45.2275 4.78806 581.884
-45.5214 5.0491 582.541
-45.7933 5.05333 582.895
-45.2532 5.04525 582.231
-44.6949 4.78089 581.301
-46.5571 4.55062 583.254
-46.3147 4.80442 583.294
-46.0693 5.05799 583.298
-37.9601 -0.330568 567.842
-37.9448 -0.578951 567.594
-38.4031 -1.07197 567.262
-38.8485 -1.81174 566.734
-38.6129 -1.5656 566.797
-37.7216 -0.0835449 567.873
-37.7052 -0.332063 567.606
-38.1749 -0.825576 567.441
-37.6899 -0.580364 567.355
-38.3759 -1.31932 566.841
-38.1468 -1.07318 567.002
-38.826 -2.05852 566.386
-39.0447 -2.55103 566.063
-38.5926 -1.81269 566.479
-38.808 -2.30527 566.104
-39.2849 -2.79694 566.072
-40.2132 -4.02453 565.642
-39.0321 -2.79775 565.86
-38.5734 -2.05956 566.177
-38.7917 -2.55189 565.847
-44.1396 4.51743 580.392
-44.1633 4.77376 580.721
-43.645 4.768 580.309
-43.1448 4.76419 580.133
-43.9022 4.77068 580.49
-43.4111 5.02175 580.456
-43.161 5.01983 580.368
-43.6683 5.02448 580.638
-40.6651 -4.75948 565.258
-40.411 -5.00654 565.008
-40.171 -5.25524 564.953
-39.9242 -5.25612 564.823
-39.6909 -5.50571 564.863
-39.4627 -5.75615 564.978
-39.2364 -6.00703 565.121
-39.0276 -6.50819 565.502
-40.4159 -4.76016 565.096
-40.1659 -5.00765 564.901
-38.8027 -6.75995 565.674
-39.6781 -5.25706 564.7
-39.4442 -5.50655 564.732
-39.2175 -5.75717 564.869
-39.0094 -6.25802 565.259
-38.9919 -6.00816 565.024
-38.5588 -6.76115 565.587
-38.7839 -6.50944 565.419
-38.0919 -7.0147 565.706
-38.316 -6.76257 565.519
-38.0733 -6.76398 565.449
-37.8483 -7.01597 565.626
-37.8311 -6.7655 565.39
-39.9799 -3.7796 565.724
-40.1961 -4.26999 565.382
-40.4293 -4.51464 565.302
-39.749 -3.53478 565.843
-39.9622 -4.02517 565.455
-40.1784 -4.51516 565.115
-39.5126 -3.28937 565.885
-39.2709 -3.04347 565.852
-39.2581 -3.2899 565.647
-47.088 4.55715 583.78
-47.3583 4.56087 584.101
-46.8229 4.55393 583.523
-46.8508 4.81169 583.888
-44.4258 4.77698 580.969
-44.451 5.03384 581.317
-44.7202 5.03787 581.648
-44.9895 5.04188 581.977
-45.2846 5.30343 582.654
-45.5536 5.30744 582.97
-45.0191 5.29978 582.378
-45.8286 5.31215 583.361
-44.7493 5.2956 582.044
-44.1866 5.03034 581.046
-44.4775 5.29116 581.682
-46.5879 4.8086 583.657
-46.3493 5.06305 583.747
-46.1077 5.31729 583.801
-37.4589 -0.0851024 567.518
-37.9216 -0.826943 567.226
-37.4459 -0.333517 567.301
-37.8942 -1.07449 566.796
-38.3547 -1.56655 566.507
-38.1206 -1.32047 566.593
-38.3398 -1.81378 566.267
-37.4779 0.16353 567.825
-37.2166 0.161847 567.491
-37.4359 -0.581787 567.128
-37.669 -0.828321 567.02
-37.6447 -1.07589 566.634
-38.5552 -2.30622 565.891
-38.7778 -2.79845 565.624
-38.1024 -1.56773 566.303
-38.322 -2.06065 565.985
-38.5397 -2.55281 565.643
-39.0191 -3.04428 565.653
-39.7273 -3.78015 565.515
-39.9459 -4.27065 565.206
-38.0864 -1.81484 566.045
-38.3043 -2.30727 565.703
-43.925 5.02714 580.811
-43.1826 5.27635 580.678
-43.4341 5.27844 580.783
-43.6894 5.28096 580.935
-43.1998 5.53258 580.928
-42.9554 5.53139 580.92
-40.1665 -4.76078 564.928
-39.9183 -5.00846 564.759
-39.6708 -5.00925 564.615
-39.9186 -4.76159 564.782
-39.4305 -5.2578 564.555
-39.1995 -5.50766 564.629
-38.9732 -5.75833 564.773
-38.7654 -6.25921 565.169
-38.5397 -6.51059 565.327
-39.4223 -5.00991 564.457
-39.6677 -4.76203 564.591
-39.1852 -5.25884 564.442
-38.9568 -5.50904 564.554
-38.7295 -5.75956 564.684
-38.7462 -6.00909 564.909
-38.5039 -6.01054 564.841
-38.2974 -6.51208 565.264
-38.5207 -6.26029 565.069
-37.6055 -7.01738 565.557
-37.5888 -6.76697 565.326
-38.0547 -6.51348 565.194
-37.8121 -6.5149 565.124
-37.3636 -7.01895 565.502
-37.3471 -6.76857 565.273
-37.5699 -6.51639 565.062
-39.4922 -3.53503 565.573
-39.7101 -4.02569 565.251
-39.473 -3.78053 565.279
-39.9282 -4.51575 564.935
-39.0042 -3.29046 565.416
-39.2395 -3.53563 565.361
-38.7629 -3.04474 565.387
-47.119 4.8153 584.182
-46.8802 5.06992 584.271
-47.1524 5.07406 584.613
-46.6176 5.06681 584.046
-44.2093 5.28713 581.363
-43.9473 5.28381 581.123
-45.0463 5.55772 582.747
-45.3153 5.56187 583.066
-44.7791 5.55376 582.449
-44.8084 5.81222 582.849
-45.5858 5.56617 583.4
-44.5067 5.54914 582.081
-44.5357 5.80744 582.479
-45.8617 5.57112 583.801
-44.2359 5.54469 581.731
-43.9719 5.54105 581.466
-46.382 5.32185 584.176
-46.1441 5.57681 584.28
-45.6213 5.82571 583.873
-37.1977 -0.0866612 567.182
-37.418 -0.82973 566.836
-37.1851 -0.334954 566.969
-37.8705 -1.3218 566.422
-37.3953 -1.07728 566.472
-37.6239 -1.32324 566.3
-37.8524 -1.569 566.131
-38.0686 -2.06162 565.76
-36.9782 0.408863 567.523
-36.9549 0.160162 567.144
-36.7157 0.407042 567.164
-37.1734 -0.583075 566.77
-37.1551 -0.830873 566.47
-38.5226 -2.79906 565.372
-38.2849 -2.55353 565.397
-37.6035 -1.57031 565.973
-37.8334 -1.8159 565.826
-38.0484 -2.30801 565.44
-39.6901 -4.27069 564.947
-39.4549 -4.02588 565
-37.8122 -2.06243 565.49
-43.4554 5.53519 581.086
-42.9725 5.78786 581.17
-43.7128 5.53802 581.266
-43.2208 5.78953 581.229
-43.4779 5.79237 581.404
-42.9923 6.04492 581.457
-39.418 -4.76259 564.415
-39.6742 -4.5159 564.701
-39.1759 -5.01084 564.328
-38.9419 -5.26015 564.358
-38.714 -5.51042 564.479
-38.4878 -5.76111 564.626
-38.2792 -6.26188 565.014
-39.1711 -4.76348 564.278
-39.4213 -4.51616 564.482
-38.9316 -5.01202 564.229
-38.6995 -5.26157 564.286
-38.4727 -5.51198 564.423
-38.2466 -5.76271 564.574
-38.2614 -6.01196 564.772
-38.0191 -6.01342 564.705
-38.0353 -6.26308 564.925
-37.106 -6.77028 565.229
-37.3284 -6.51799 565.009
-37.7936 -6.26464 564.869
-37.5511 -6.26607 564.8
-36.8648 -6.77197 565.183
-37.0871 -6.51965 564.961
-37.309 -6.26755 564.737
-39.2183 -3.78085 565.035
-38.9835 -3.53591 565.097
-38.7458 -3.29063 565.118
-38.5017 -3.04478 565.046
-46.6477 5.3254 584.44
-46.9144 5.32904 584.714
-46.6772 5.58427 584.827
-46.9493 5.58863 585.166
-45.0755 5.81624 583.143
-44.5686 6.06662 582.927
-45.3482 5.82097 583.507
-44.2953 6.06161 582.548
-44.8415 6.07155 583.298
-44.3272 6.32093 582.986
-44 5.79906 581.857
-44.0283 6.05743 582.249
-45.902 5.83138 584.331
-43.7375 5.79553 581.612
-46.4133 5.58086 584.588
-46.1802 5.8367 584.754
-45.6643 6.08665 584.44
-45.3832 6.08073 583.974
-45.1101 6.07585 583.608
-36.9351 -0.0882145 566.82
-36.919 -0.33634 566.552
-37.1315 -1.07825 566.09
-37.3702 -1.32443 566.072
-37.5763 -1.81677 565.543
-36.6932 0.158479 566.796
-36.4579 0.405271 566.874
-36.2252 0.652229 566.994
-36.2039 0.403542 566.639
-36.9021 -0.584216 566.271
-36.8861 -0.831868 566.005
-38.2617 -2.79925 565.034
-38.0257 -2.55395 565.083
-37.3408 -1.57104 565.606
-37.7852 -2.30829 565.065
-39.434 -4.27069 564.682
-39.1956 -4.02564 564.689
-38.9601 -3.78081 564.739
-37.5431 -2.06252 565.024
-43.2428 6.04688 581.543
-43.5017 6.05 581.74
-43.0149 6.30264 581.781
-43.2681 6.305 581.902
-39.1692 -4.51649 564.27
-38.9238 -4.7643 564.134
-38.6875 -5.01321 564.13
-38.4568 -5.26294 564.209
-38.2314 -5.51357 564.368
-38.006 -5.76441 564.53
-38.921 -4.51725 564.113
-39.1778 -4.27065 564.413
-38.6782 -4.76533 564.015
-38.4426 -5.01431 564.021
-38.215 -5.26445 564.147
-37.9918 -5.51539 564.339
-37.7641 -5.76591 564.468
-37.7768 -6.01486 564.638
-37.5352 -6.01642 564.581
-36.8454 -6.52122 564.905
-37.0675 -6.26913 564.683
-37.2931 -6.01789 564.516
-36.6015 -6.5224 564.816
-36.3592 -6.52387 564.751
-36.8252 -6.27058 564.615
-37.0513 -6.01942 564.457
-38.7234 -3.5358 564.772
-38.4795 -3.2901 564.7
-38.2368 -3.04451 564.647
-46.4453 5.84033 585.009
-46.7093 5.84381 585.247
-46.2093 6.09608 585.14
-46.979 5.84797 585.554
-46.4743 6.09977 585.391
-46.7407 6.10362 585.658
-44.6019 6.32625 583.381
-44.0555 6.31599 582.627
-44.0863 6.57541 583.052
-43.7902 6.31194 582.35
-44.8745 6.33124 583.745
-44.3593 6.58065 583.426
-43.8189 6.57098 582.75
-43.7644 6.05365 581.989
-43.5276 6.30826 582.106
-43.5524 6.56665 582.456
-45.9408 6.09191 584.843
-45.4238 6.3417 584.516
-45.7017 6.34731 584.937
-45.1483 6.33636 584.12
-45.1828 6.59679 584.585
-44.6328 6.58593 583.803
-36.6752 -0.0897719 566.495
-36.4367 0.156817 566.522
-36.6579 -0.337766 566.208
-36.4171 -0.0913318 566.197
-37.1054 -1.32521 565.671
-36.8649 -1.07913 565.659
-37.3061 -1.81698 565.059
-37.074 -1.57157 565.172
-35.9735 0.65046 566.795
-35.9564 0.401884 566.504
-35.7411 0.897518 566.923
-35.7252 0.648754 566.649
-36.184 0.155173 566.307
-35.7088 0.400225 566.368
-36.6402 -0.5855 565.914
-36.3988 -0.339206 565.89
-36.6225 -0.832975 565.619
-36.3821 -0.586838 565.61
-37.9992 -2.7993 564.669
-37.7611 -2.55399 564.685
-36.8417 -1.32602 565.283
-37.5175 -2.30828 564.618
-38.9403 -4.02577 564.432
-38.7024 -3.78081 564.446
-38.4607 -3.53543 564.405
-37.2795 -2.06289 564.636
-37.0462 -1.81768 564.727
-43.0359 6.56041 582.084
-42.7848 6.55836 581.992
-43.293 6.56336 582.255
-42.8025 6.81588 582.253
-38.9257 -4.27104 564.201
-38.6718 -4.51789 563.941
-38.4324 -4.76633 563.891
-38.2009 -5.01582 563.958
-37.9749 -5.26618 564.108
-37.7499 -5.51689 564.276
-38.6737 -4.27143 563.988
-38.4254 -4.51884 563.808
-38.1895 -4.76769 563.81
-37.9593 -5.01733 563.896
-37.734 -5.26781 564.059
-37.5218 -5.76735 564.4
-37.5074 -5.51829 564.203
-37.2792 -5.76875 564.327
-36.5841 -6.27224 564.568
-36.8096 -6.02095 564.397
-37.0387 -5.77045 564.284
-36.3426 -6.27382 564.513
-36.1173 -6.5254 564.692
-36.1013 -6.27545 564.463
-35.8585 -6.2768 564.388
-36.5686 -6.02261 564.35
-36.796 -5.77183 564.21
-38.2211 -3.29023 564.396
-37.9814 -3.04498 564.384
-37.7423 -2.79974 564.383
-37.9669 -3.2907 564.149
-45.9741 6.35213 585.284
-46.5006 6.35917 585.739
-46.2382 6.35578 585.524
-46.7715 6.3637 586.06
-46.5301 6.61933 586.128
-46.2669 6.61578 585.905
-44.1167 6.83516 583.473
-43.849 6.83059 583.168
-43.5809 6.82592 582.855
-44.9055 6.59104 584.166
-44.3889 6.84038 583.833
-43.875 7.0899 583.532
-43.3183 6.82211 582.614
-43.0572 6.81849 582.39
-45.4584 6.60224 584.977
-45.2074 6.85611 584.92
-45.7308 6.60721 585.327
-45.4815 6.86148 585.293
-44.9323 6.85057 584.533
-44.9594 7.11045 584.902
-44.6606 6.84549 584.185
-44.4183 7.10043 584.238
-35.9359 0.153549 566.16
-36.1626 -0.092899 565.951
-36.145 -0.340695 565.654
-36.6043 -1.08018 565.317
-36.3664 -0.834247 565.345
-36.816 -1.57247 564.869
-36.5824 -1.32698 564.958
-35.4858 0.895596 566.666
-35.4724 0.646966 566.431
-35.5007 1.14448 566.926
-35.244 1.14243 566.646
-35.6859 0.151917 565.984
-35.453 0.398475 566.1
-35.912 -0.0944748 565.762
-36.1269 -0.58822 565.349
-35.8883 -0.342151 565.368
-37.728 -3.04559 564.149
-37.4995 -2.5542 564.327
-36.3455 -1.08127 564.999
-37.2586 -2.30879 564.299
-37.0223 -2.06361 564.342
-37.2441 -2.55483 564.06
-38.6843 -4.02583 564.163
-38.4431 -3.78062 564.127
-38.2057 -3.53574 564.147
-36.7896 -1.81853 564.443
-36.5589 -1.5734 564.575
-42.5598 6.81517 582.277
-42.5755 7.07263 582.511
-42.8232 7.07412 582.553
-43.0824 7.07748 582.75
-38.4242 -4.27207 563.81
-38.18 -4.51992 563.69
-37.9464 -4.76901 563.725
-37.7193 -5.01906 563.858
-37.4929 -5.2694 564.006
-38.4302 -4.02605 563.918
-38.1749 -4.27274 563.635
-37.9361 -4.52115 563.592
-37.7059 -4.77066 563.679
-37.4777 -5.02058 563.797
-37.2661 -5.51987 564.148
-37.2515 -5.27095 563.947
-37.024 -5.52134 564.082
-36.327 -6.02416 564.292
-36.5536 -5.77324 564.139
-36.7822 -5.52285 564.02
-36.0842 -6.02553 564.218
-35.6186 -6.27867 564.359
-35.841 -6.0268 564.135
-35.6001 -6.02847 564.088
-35.3778 -6.28038 564.316
-36.3113 -5.77467 564.069
-36.5396 -5.52422 563.944
-37.714 -3.29126 563.919
-37.488 -2.80036 564.134
-37.4754 -3.04625 563.924
-37.951 -3.53607 563.892
-38.1885 -3.78087 563.874
-46.0035 6.61218 585.676
-45.7541 6.86657 585.642
-46.8 6.62381 586.434
-46.2959 6.87617 586.29
-46.5617 6.88016 586.545
-46.0269 6.87167 585.992
-45.7797 7.12658 585.988
-44.1486 7.0955 583.912
-43.6079 7.08531 583.234
-43.345 7.08139 582.992
-43.635 7.34505 583.615
-44.6889 7.10547 584.572
-43.9034 7.34994 583.929
-43.3701 7.34074 583.348
-45.2306 7.11553 585.24
-44.9882 7.37096 585.296
-45.5041 7.12091 585.602
-45.2571 7.37574 585.6
-44.7164 7.36567 584.951
-44.449 7.36105 584.66
-44.1792 7.35602 584.336
-35.6572 -0.0960385 565.507
-36.1053 -0.835397 564.99
-36.3214 -1.32787 564.603
-35.2278 0.893601 566.362
-34.9862 1.14032 566.344
-35.2108 0.645014 566.069
-35.0049 1.38939 566.669
-34.7476 1.3872 566.374
-35.4285 0.150254 565.686
-35.1872 0.39661 565.667
-35.8647 -0.589482 564.975
-35.6268 -0.343558 565.003
-35.3953 -0.0975806 565.134
-37.2331 -2.80092 563.873
-36.079 -1.08212 564.557
-37.0027 -2.30947 564.024
-36.7671 -2.06442 564.076
-36.9889 -2.55545 563.793
-36.532 -1.81931 564.139
-36.979 -2.80153 563.621
-38.1776 -4.02643 563.694
-36.294 -1.57398 564.157
-42.845 7.3328 582.868
-42.6117 7.58902 583.044
-43.1072 7.33673 583.105
-37.9293 -4.2738 563.511
-37.6934 -4.52252 563.511
-37.4639 -4.77211 563.609
-37.2369 -5.0222 563.747
-37.9281 -4.02711 563.513
-37.6837 -4.27484 563.386
-37.4507 -4.52389 563.43
-37.2212 -4.77349 563.53
-37.0092 -5.27238 563.877
-36.9934 -5.02346 563.657
-36.7672 -5.27384 563.81
-36.0678 -5.77591 563.981
-36.2976 -5.52569 563.878
-36.5249 -5.27525 563.737
-35.8254 -5.77731 563.909
-35.3604 -6.03034 564.061
-35.1202 -6.03213 564.025
-35.5841 -5.7789 563.855
-35.3453 -5.7809 563.842
-34.8804 -6.03399 563.997
-36.0548 -5.52703 563.799
-36.2846 -5.27697 563.697
-37.4595 -3.29167 563.664
-37.6969 -3.53644 563.644
-37.2208 -3.04674 563.666
-37.9354 -3.78126 563.641
-37.6836 -3.78176 563.425
-45.5308 7.38127 585.963
-46.8302 6.88451 586.83
-46.3267 7.13716 586.697
-46.5938 7.14141 586.966
-46.0555 7.13225 586.374
-45.8115 7.38789 586.413
-46.0878 7.39375 586.802
-43.9322 7.6104 584.33
-43.3968 7.60067 583.726
-43.6629 7.60527 584.007
-43.1316 7.5962 583.453
-42.8664 7.59168 583.177
-45.015 7.63145 585.662
-44.7467 7.62665 585.364
-44.4812 7.6223 585.102
-45.2885 7.63711 586.024
-44.209 7.61677 584.748
-43.9631 7.87158 584.759
-35.1565 0.148529 565.152
-35.8374 -0.836381 564.523
-36.0519 -1.32843 564.112
-34.9622 0.89141 565.934
-34.723 1.13804 565.951
-34.4903 1.385 566.076
-34.9365 0.642824 565.495
-34.7681 1.63654 566.731
-34.5095 1.63418 566.414
-34.5272 1.88357 566.727
-34.2532 1.63192 566.132
-34.9108 0.394624 565.058
-35.5994 -0.590686 564.547
-35.362 -0.344929 564.581
-35.1245 -0.0990956 564.616
-35.8135 -1.08299 564.126
-36.7466 -2.31013 563.741
-36.5063 -2.06491 563.72
-36.2665 -1.81969 563.709
-36.7326 -2.55598 563.505
-36.9652 -3.04712 563.39
-36.7195 -2.80171 563.285
-37.2042 -3.29199 563.394
-36.0253 -1.57437 563.675
-42.6324 7.84805 583.347
-42.8913 7.8515 583.535
-37.68 -4.02792 563.352
-37.4394 -4.27604 563.281
-37.2061 -4.52502 563.32
-36.978 -4.77478 563.441
-37.4315 -4.02869 563.183
-37.1929 -4.27697 563.141
-36.9629 -4.52633 563.232
-36.7516 -5.02494 563.591
-36.7344 -4.77603 563.348
-36.5092 -5.02635 563.517
-35.8132 -5.52856 563.739
-36.042 -5.27834 563.62
-36.2678 -5.02789 563.457
-35.5711 -5.53001 563.671
-35.1052 -5.78268 563.807
-34.8647 -5.7844 563.765
-34.6393 -6.03564 563.949
-35.331 -5.53177 563.635
-35.0913 -5.53359 563.604
-34.6243 -5.78614 563.726
-34.3838 -5.78786 563.685
-35.8009 -5.27993 563.566
-36.0277 -5.0296 563.418
-37.4421 -3.53672 563.382
-37.4325 -3.78231 563.217
-45.5659 7.64335 586.432
-46.8635 7.14602 587.265
-46.3549 7.39809 587.071
-46.6242 7.40276 587.366
-45.8438 7.64964 586.843
-46.3822 7.65921 587.434
-46.115 7.65478 587.166
-45.8704 7.91081 587.202
-43.4215 7.86058 584.077
-43.1564 7.85606 583.807
-43.1793 8.11587 584.136
-43.448 8.12112 584.451
-44.7747 7.88761 585.749
-45.0431 7.89251 586.045
-44.5113 7.88358 585.516
-44.2413 7.87832 585.193
-43.9965 8.1336 585.222
-45.323 7.89938 586.489
-43.7179 8.12658 584.78
-34.8838 0.146803 564.6
-35.5747 -0.837476 564.134
-35.3348 -0.591894 564.125
-35.7885 -1.32921 563.712
-35.5506 -1.08393 563.732
-34.695 0.889169 565.472
-34.4649 1.13592 565.638
-34.237 1.38296 565.841
-34.0002 1.62981 565.901
-34.2676 1.88103 566.393
-34.6682 0.640742 565.014
-34.4359 0.887133 565.139
-34.2838 2.13049 566.683
-34.0118 1.87869 566.117
-34.0232 2.12775 566.328
-34.0393 2.37734 566.62
-33.7569 1.8764 565.853
-34.6447 0.392753 564.61
-35.0963 -0.346287 564.141
-34.8592 -0.100622 564.179
-36.4869 -2.31054 563.4
-36.2451 -2.06535 563.354
-36.006 -1.8203 563.353
-36.4723 -2.55622 563.155
-36.9477 -3.2922 563.104
-36.7035 -3.047 563.018
-37.1906 -3.5373 563.168
-36.458 -2.80171 562.913
-35.7655 -1.57514 563.327
-35.5265 -1.33002 563.328
-42.4041 8.10573 583.596
-42.6567 8.10801 583.697
-42.9171 8.11179 583.906
-37.1845 -4.0296 563.035
-36.9491 -4.27822 563.043
-36.7182 -4.52745 563.12
-36.4925 -4.77749 563.279
-37.1832 -3.78304 563.036
-36.9373 -4.03048 562.883
-36.7043 -4.27933 562.927
-36.4767 -4.52896 563.056
-36.2505 -4.77893 563.209
-35.5592 -5.28144 563.504
-35.7865 -5.03116 563.36
-36.0116 -4.78079 563.187
-35.3171 -5.28287 563.434
-34.8503 -5.53521 563.554
-34.6099 -5.53692 563.513
-34.1414 -5.78927 563.613
-35.0773 -5.28467 563.402
-34.8361 -5.28624 563.346
-34.3695 -5.53865 563.473
-34.1305 -5.5406 563.456
-33.8925 -5.54271 563.455
-35.5456 -5.03277 563.31
-35.7705 -4.78237 563.131
-45.5975 7.90524 586.857
-46.653 7.6642 587.746
-46.4098 7.92069 587.801
-46.1416 7.91603 587.523
-45.6288 8.16746 587.277
-45.9006 8.17291 587.606
-45.3555 8.1617 586.927
-43.205 8.3765 584.502
-42.9414 8.3721 584.254
-42.6803 8.36817 584.04
-43.4766 8.38241 584.854
-44.5384 8.14466 585.891
-44.8064 8.14958 586.182
-44.2719 8.13996 585.617
-45.078 8.15513 586.518
-44.029 8.39586 585.673
-43.7495 8.38852 585.221
-43.51 8.645 585.322
-34.6205 0.145117 564.192
-34.4064 0.638774 564.633
-35.3103 -0.838524 563.713
-35.0718 -0.593123 563.725
-34.8359 -0.347691 563.781
-35.2867 -1.08482 563.314
-34.2093 1.13388 565.361
-33.9804 1.38078 565.549
-33.743 1.62749 565.598
-33.7669 2.12529 566.044
-34.1747 0.885038 564.768
-33.9482 1.13164 564.99
-33.7807 2.37461 566.297
-33.7967 2.62433 566.589
-33.5395 2.62158 566.288
-33.5577 2.87165 566.619
-33.5089 2.1227 565.726
-33.4969 1.87381 565.5
-33.5222 2.37188 565.973
-34.381 0.390907 564.195
-34.1429 0.636772 564.219
-34.5967 -0.102154 563.783
-34.3585 0.143437 563.802
-36.2296 -2.31109 563.093
-35.9897 -2.06611 563.075
-35.7478 -1.82102 563.028
-36.2126 -2.55648 562.808
-36.4489 -3.04743 562.752
-36.9363 -3.5376 562.909
-36.6905 -3.29231 562.798
-36.6862 -3.53828 562.712
-36.9331 -3.78367 562.839
-36.4421 -3.29321 562.625
-36.2009 -2.80204 562.606
-36.1955 -3.04795 562.501
-35.5044 -1.57584 562.955
-35.2658 -1.33087 562.96
-42.4255 8.36545 583.91
-42.1799 8.36452 583.904
-42.1954 8.62337 584.139
-36.694 -4.03179 562.791
-36.4623 -4.28078 562.854
-36.2352 -4.53046 562.992
-36.687 -3.7847 562.704
-36.4515 -4.03318 562.709
-36.2226 -4.28249 562.818
-35.9956 -4.53221 562.958
-35.3031 -5.03415 563.233
-35.5304 -4.78406 563.09
-35.755 -4.53382 562.908
-35.0637 -5.03598 563.205
-34.595 -5.28783 563.292
-33.651 -5.54426 563.398
-34.1178 -5.29178 563.268
-34.824 -5.03775 563.172
-34.5837 -5.03945 563.131
-33.8801 -5.29391 563.272
-33.6414 -5.2959 563.261
-33.4035 -5.29801 563.262
-35.2895 -4.78565 563.037
-35.5143 -4.53542 562.855
-46.6801 7.9257 588.106
-46.1721 8.17827 587.928
-46.445 8.18384 588.265
-45.9336 8.43589 588.046
-45.3918 8.4251 587.414
-45.6665 8.43123 587.781
-45.1141 8.41839 587.005
-44.8389 8.41208 586.625
-42.9675 8.63309 584.628
-43.2354 8.63841 584.932
-42.7049 8.62882 584.395
-42.4473 8.62552 584.228
-44.3026 8.40199 586.041
-44.5682 8.40657 586.301
-44.0604 8.65828 586.109
-43.786 8.65183 585.728
-43.5441 8.90815 585.799
-43.2688 8.9013 585.402
-42.9986 8.89545 585.071
-34.1206 0.389097 563.828
-33.9095 0.88283 564.323
-35.0496 -0.83965 563.347
-34.8125 -0.594407 563.379
-34.5724 -0.34906 563.365
-34.3346 -0.103684 563.388
-35.0265 -1.08582 562.954
-34.7879 -0.840743 562.959
-33.7169 1.3783 565.137
-33.4804 1.6249 565.2
-33.6809 1.12919 564.511
-33.4494 1.37566 564.652
-33.2816 2.61877 565.973
-33.301 2.86884 566.326
-33.5712 3.12158 566.871
-33.3191 3.1191 566.658
-33.0439 2.86597 566.023
-33.0627 3.1162 566.369
-33.3351 3.36943 566.953
-33.5792 3.37116 567.027
-33.2635 2.36911 565.643
-33.2496 2.12001 565.383
-33.0082 2.36658 565.366
-33.2362 1.87117 565.133
-33.0267 2.61618 565.705
-33.8836 0.634845 563.87
-33.6469 0.880686 563.918
-34.0989 0.141768 563.447
-33.8623 0.38731 563.493
-35.9731 -2.31167 562.795
-35.7333 -2.06681 562.778
-35.4893 -1.8217 562.695
-35.9571 -2.55703 562.525
-35.9476 -2.80264 562.353
-36.1955 -3.29425 562.479
-36.4412 -3.53945 562.591
-36.4443 -3.78607 562.618
-36.198 -3.54078 562.497
-35.9472 -3.04888 562.327
-35.9506 -3.29545 562.359
-35.2457 -1.57663 562.617
-35.006 -1.33174 562.603
-42.2134 8.88293 584.407
-42.4695 8.88597 584.553
-42.2345 9.14341 584.718
-36.2127 -4.03497 562.684
-35.9813 -4.28401 562.755
-36.2044 -3.78774 562.576
-35.9712 -4.03647 562.619
-35.741 -4.28565 562.708
-35.05 -4.78744 563.007
-35.2763 -4.53738 562.848
-35.5002 -4.28723 562.654
-34.8126 -4.78952 563.011
-34.3453 -5.04143 563.121
-33.1665 -5.30027 563.279
-33.8681 -5.04534 563.095
-34.107 -5.04342 563.113
-34.5731 -4.7913 562.98
-34.3347 -4.79325 562.969
-33.3929 -5.04958 563.107
-33.1548 -5.05163 563.104
-32.9168 -5.0537 563.104
-35.0374 -4.53922 562.826
-35.2623 -4.28916 562.645
-46.2049 8.4413 588.363
-46.4848 8.44823 588.787
-45.9678 8.69948 588.502
-46.2411 8.70535 588.842
-45.7003 8.69468 588.233
-45.4314 8.68958 587.945
-45.1517 8.68236 587.513
-44.8715 8.67499 587.071
-44.9079 8.93904 587.565
-45.1888 8.94668 588.014
-44.5988 8.669 586.721
-44.3307 8.66388 586.431
-42.7321 8.89031 584.786
-43.8206 8.91519 586.21
-44.0885 8.92043 586.501
-43.5766 9.17138 586.256
-43.3042 9.16504 585.901
-43.0303 9.15832 585.521
-42.7605 9.15241 585.193
-42.4923 9.14682 584.886
-33.6226 0.632882 563.488
-33.4141 1.12675 564.035
-34.5479 -0.595594 562.943
-34.3094 -0.350429 562.953
-34.0755 -0.105221 563.039
-33.8399 0.140102 563.098
-34.7664 -1.08681 562.59
-34.5257 -0.841816 562.56
-33.2165 1.62223 564.774
-32.9776 1.86863 564.794
-33.1851 1.37313 564.218
-32.9525 1.61955 564.342
-32.7895 2.86333 565.764
-32.8063 3.11329 566.077
-33.079 3.36647 566.671
-33.5761 3.61969 566.999
-33.3432 3.61917 567.114
-32.8234 3.36355 566.395
-33.0934 3.6168 566.94
-32.5545 3.1108 565.862
-32.5711 3.36095 566.174
-32.8381 3.61383 566.672
-33.1083 3.86743 567.219
-32.7713 2.61354 565.426
-32.9941 2.11756 565.101
-32.7561 2.36426 565.14
-32.5197 2.61119 565.209
-32.7395 2.11515 564.83
-32.5357 2.86073 565.511
-33.3848 0.878549 563.516
-33.1495 1.12438 563.589
-33.6023 0.385502 563.126
-33.3628 0.63094 563.123
-35.7181 -2.31234 562.518
-35.7061 -2.55787 562.307
-35.4772 -2.0675 562.481
-35.4649 -2.31311 562.265
-35.2322 -1.82245 562.381
-35.2209 -2.06817 562.178
-35.6998 -2.80366 562.187
-35.7001 -3.04991 562.17
-35.7063 -3.29669 562.247
-35.9568 -3.54232 562.435
-35.9638 -3.78933 562.523
-35.7142 -3.5437 562.349
-34.9905 -1.57757 562.332
-34.75 -1.33274 562.303
-34.5097 -1.08789 562.277
-42.259 9.40493 585.077
-42.5206 9.40919 585.295
-35.73 -4.038 562.556
-35.7213 -3.79072 562.441
-35.4888 -4.03953 562.495
-34.7998 -4.54123 562.825
-35.0241 -4.29106 562.633
-35.2485 -4.04116 562.447
-34.5612 -4.54312 562.809
-34.0965 -4.79523 562.961
-32.68 -5.05597 563.126
-33.143 -4.80313 562.927
-33.3816 -4.80117 562.938
-33.8584 -4.79724 562.957
-33.6205 -4.79927 562.955
-34.3221 -4.54495 562.785
-34.0844 -4.54697 562.784
-32.9061 -4.80532 562.944
-32.6692 -4.80754 562.964
-34.7852 -4.29289 562.61
-45.7309 8.95792 588.645
-46.7471 8.45193 588.985
-46.5159 8.71146 589.199
-46.7676 8.7132 589.26
-46.0006 8.96321 588.94
-46.2742 8.96922 589.281
-45.4645 8.95325 588.392
-45.2223 9.2107 588.467
-44.9465 9.20398 588.088
-44.6324 8.93242 587.183
-44.67 9.19704 587.695
-44.3565 8.92565 586.791
-44.387 9.18872 587.213
-44.4229 9.4533 587.707
-44.7047 9.4615 588.169
-44.1153 9.18266 586.876
-43.8501 9.17792 586.623
-43.3348 9.42816 586.333
-43.6067 9.4345 586.68
-43.0625 9.4217 585.979
-43.3585 9.69012 586.672
-42.7902 9.41516 585.619
-43.0876 9.68388 586.339
-33.1218 0.876383 563.095
-32.9161 1.3704 563.695
-34.2873 -0.596844 562.568
-34.0501 -0.35183 562.596
-33.8152 -0.106752 562.664
-33.5784 0.138426 562.703
-33.3401 0.383667 562.716
-34.2681 -0.842992 562.231
-34.0298 -0.59814 562.239
-32.7161 1.86591 564.402
-32.4822 2.11255 564.51
-32.6842 1.61664 563.829
-32.452 1.86304 563.962
-32.3024 3.10827 565.638
-32.3201 3.35847 565.971
-32.5837 3.61093 566.416
-32.8527 3.86434 566.947
-32.3352 3.60869 566.261
-32.598 3.86134 566.688
-32.071 3.35617 565.8
-32.053 3.10598 565.46
-32.087 3.60646 566.108
-32.3469 3.85874 566.489
-32.6125 4.11201 566.965
-32.8691 4.11532 567.254
-32.6297 4.36328 567.287
-32.285 2.85838 565.309
-32.5026 2.36184 564.888
-32.2682 2.60883 564.992
-32.0355 2.85613 565.126
-32.2469 2.35924 564.595
-32.8857 1.12202 563.151
-32.6507 1.3678 563.228
-33.1006 0.628948 562.712
-35.4558 -2.55875 562.099
-35.4526 -2.80472 562.028
-35.2111 -2.31383 562.001
-35.2062 -2.55968 561.901
-34.9759 -1.82322 562.076
-34.9651 -2.06886 561.881
-34.959 -2.31465 561.761
-35.456 -3.05119 562.06
-35.4635 -3.29807 562.158
-35.4718 -3.54511 562.268
-35.4798 -3.79221 562.373
-34.7356 -1.57851 562.048
-34.4952 -1.33378 562.019
-34.483 -1.57955 561.798
-34.2529 -1.08897 561.959
-34.2419 -1.33487 561.756
-42.2859 9.6673 585.469
-42.5515 9.67249 585.739
-35.2389 -3.79377 562.316
-34.5473 -4.29484 562.605
-34.7727 -4.04498 562.43
-35.0003 -3.79558 562.295
-34.3088 -4.29671 562.588
-33.847 -4.54903 562.79
-32.6592 -4.55935 562.814
-32.8961 -4.55719 562.797
-33.132 -4.55489 562.763
-33.37 -4.55289 562.766
-33.6085 -4.55096 562.778
-34.0715 -4.29875 562.593
-33.8342 -4.30079 562.599
-32.6488 -4.31124 562.658
-34.5344 -4.04685 562.416
-45.4919 9.21612 588.763
-45.757 9.22061 589
-45.5172 9.47891 589.109
-46.5443 8.97451 589.576
-46.029 9.22643 589.321
-46.3061 9.23324 589.706
-46.5703 9.23743 589.923
-45.7856 9.48412 589.386
-44.9847 9.46929 588.606
-45.2524 9.47441 588.877
-44.7418 9.72692 588.677
-44.4579 9.7181 588.187
-44.1444 9.4457 587.282
-44.1747 9.70936 587.703
-43.8758 9.44017 586.985
-43.9047 9.70346 587.39
-44.2053 9.97346 588.128
-42.8223 9.67882 586.077
-43.1097 9.94567 586.658
-43.6381 9.69826 587.12
-43.3808 9.95207 586.994
-42.5846 9.93671 586.213
-32.8603 0.87425 562.693
-32.6234 1.1197 562.733
-32.4193 1.61388 563.369
-33.7918 -0.353237 562.252
-33.5534 -0.108275 562.262
-33.316 0.136747 562.287
-33.0756 0.381806 562.264
-34.0123 -0.844205 561.928
-33.7725 -0.599434 561.909
-33.9997 -1.09015 561.698
-33.534 -0.354646 561.913
-32.2185 2.10952 564.074
-31.9845 2.35613 564.179
-32.187 1.86009 563.499
-31.9523 2.10631 563.587
-31.8227 3.35396 565.643
-31.8033 3.10366 565.275
-31.8395 3.60429 565.966
-32.0988 3.85649 566.34
-32.3572 4.10882 566.692
-31.8528 3.85448 566.226
-32.1069 4.10626 566.507
-32.3702 4.35945 566.944
-31.5879 3.60166 565.75
-31.5671 3.35096 565.353
-31.6051 3.85226 566.082
-31.8611 4.10426 566.398
-32.1163 4.35636 566.697
-32.65 4.61526 567.663
-32.3872 4.61086 567.265
-32.4078 4.86311 567.651
-32.1284 4.607 566.934
-32.1468 4.85881 567.283
-32.014 2.60624 564.723
-31.7801 2.85334 564.838
-31.5412 3.10011 564.866
-31.7506 2.60289 564.288
-32.3878 1.3653 562.799
-32.1536 1.61107 562.89
-32.8361 0.626908 562.256
-35.2087 -2.80603 561.92
-35.2134 -3.05259 561.973
-34.9593 -2.56079 561.744
-34.9634 -2.80723 561.789
-34.7219 -1.8241 561.805
-34.7136 -2.06979 561.649
-34.7118 -2.31578 561.597
-34.7146 -2.56206 561.621
-35.2208 -3.29945 562.069
-35.2301 -3.54658 562.196
-34.9796 -3.30098 562.006
-34.9907 -3.54829 562.162
-34.4728 -1.82523 561.61
-34.2325 -1.58067 561.581
-34.2278 -1.82657 561.48
-33.9914 -1.33607 561.538
-33.9858 -1.58196 561.422
-42.0518 9.9258 585.654
-42.3137 9.93022 585.872
-41.7993 9.92358 585.565
-41.8142 10.1837 585.793
-34.7618 -3.79741 562.277
-34.296 -4.04871 562.4
-34.5224 -3.79912 562.242
-34.7512 -3.54998 562.126
-34.0585 -4.05068 562.401
-32.4113 -4.3133 562.666
-32.8846 -4.30897 562.623
-32.1749 -4.31552 562.695
-33.1211 -4.30679 562.6
-33.3594 -4.30487 562.609
-33.8226 -4.05286 562.429
-33.5859 -4.05494 562.444
-32.6386 -4.0633 562.506
-32.401 -4.06531 562.512
-32.8741 -4.06104 562.467
-34.2844 -3.80101 562.233
-45.2774 9.7374 589.221
-45.5448 9.74248 589.484
-45.0152 9.73338 589.023
-46.0624 9.49102 589.767
-46.3349 9.49699 590.09
-46.5906 9.49948 590.198
-45.8219 9.74962 589.871
-46.3606 9.76042 590.435
-46.0983 9.75653 590.245
-44.4952 9.98386 588.7
-44.7763 9.9922 589.149
-44.2509 10.2414 588.754
-43.9342 9.96724 587.804
-43.667 9.96184 587.527
-42.3447 10.1943 586.322
-42.0766 10.1883 586.019
-42.1028 10.4515 586.404
-32.6002 0.872149 562.311
-32.3621 1.11741 562.329
-32.1252 1.36279 562.368
-31.9194 1.85697 562.982
-33.2941 -0.109803 561.895
-33.0546 0.135073 561.883
-32.8161 0.379999 561.889
-32.5801 0.625027 561.941
-33.7594 -0.845484 561.669
-33.7485 -1.09139 561.465
-33.5184 -0.60078 561.63
-33.5066 -0.84676 561.409
-33.2777 -0.356066 561.595
-33.7421 -1.3373 561.335
-33.0381 -0.111339 561.579
-31.7175 2.35266 563.676
-31.5103 2.84923 564.287
-31.6846 2.10298 563.068
-31.4771 2.59868 563.668
-31.6159 4.10234 566.3
-31.868 4.35401 566.546
-31.6237 4.3522 566.465
-31.878 4.60432 566.748
-31.3468 3.84874 565.746
-31.3253 3.59775 565.334
-31.2981 3.3465 564.817
-31.3639 4.09952 566.079
-31.3758 4.34988 566.318
-31.6326 4.60234 566.648
-32.6662 4.86697 567.968
-32.4279 5.11561 568.027
-32.1673 5.11127 567.669
-31.8916 4.85536 567.013
-31.9085 5.10717 567.338
-32.1873 5.36397 568.046
-31.6425 4.85282 566.851
-31.6548 5.10385 567.094
-31.0541 3.59281 564.755
-31.2632 3.09496 564.164
-31.8933 1.60851 562.498
-31.6595 1.85429 562.598
-32.342 0.870092 561.956
-34.9702 -3.05394 561.876
-34.7211 -2.80866 561.704
-34.4757 -2.56376 561.591
-34.7308 -3.05562 561.84
-34.4832 -2.81045 561.691
-34.4683 -2.07108 561.515
-34.4693 -2.31722 561.509
-34.2266 -2.07259 561.439
-34.2309 -2.31894 561.487
-34.2378 -2.56553 561.579
-34.7404 -3.30268 561.973
-34.5018 -3.30446 561.951
-34.5122 -3.55174 562.099
-33.9836 -1.82795 561.365
-33.9865 -2.07418 561.389
-33.7396 -1.58328 561.273
-33.7424 -1.82948 561.296
-41.5703 10.1836 585.827
-41.8366 10.4459 586.127
-41.5878 10.4446 586.092
-34.2744 -3.55361 562.09
-33.812 -3.8052 562.275
-32.1639 -4.06739 562.526
-31.9291 -4.06977 562.581
-33.1111 -4.05897 562.454
-31.7042 -4.32025 562.79
-31.6931 -4.07201 562.617
-33.3494 -4.05706 562.463
-33.575 -3.8072 562.284
-33.3381 -3.80923 562.296
-32.6279 -3.81543 562.346
-32.8654 -3.81345 562.341
-32.1531 -3.81943 562.36
-33.1022 -3.81139 562.326
-34.037 -3.55553 562.09
-45.04 9.99659 589.366
-45.3044 10.0011 589.591
-45.5771 10.0074 589.921
-45.8579 10.0155 590.351
-46.1302 10.0216 590.671
-45.3352 10.266 590.009
-46.3937 10.0257 590.874
-45.8864 10.2801 590.737
-45.6101 10.2729 590.366
-44.5346 10.2505 589.24
-44.008 10.4994 588.829
-44.8061 10.2568 589.559
-44.2973 10.5101 589.39
-43.7597 10.7562 588.831
-42.3717 10.4577 586.715
-41.8614 10.709 586.494
-42.1297 10.7152 586.797
-41.6057 10.706 586.364
-32.1037 1.11521 561.97
-31.8682 1.36052 562.033
-31.636 1.60609 562.156
-31.4241 2.1001 562.67
-31.4488 2.34903 563.136
-32.7991 0.133425 561.576
-32.5619 0.378253 561.603
-32.3257 0.623174 561.649
-32.5475 0.131792 561.332
-32.0861 0.868091 561.637
-33.4996 -1.0927 561.27
-33.4958 -1.33865 561.184
-33.2646 -0.602127 561.352
-33.2569 -0.848109 561.199
-33.2532 -1.09409 561.113
-33.0244 -0.357516 561.324
-33.0154 -0.603552 561.148
-33.4958 -1.5847 561.16
-32.7848 -0.112883 561.308
-32.7757 -0.359011 561.128
-31.2307 2.8442 563.553
-31.0211 3.34115 564.129
-31.2043 2.59449 563.051
-31.1829 2.3456 562.642
-30.9867 3.0899 563.479
-31.3868 4.60031 566.541
-31.3967 4.85077 566.744
-31.0984 4.09491 565.609
-31.0788 3.84399 565.228
-31.1158 4.34586 565.95
-30.809 3.83895 564.67
-31.1332 4.59712 566.291
-31.9282 5.35973 567.713
-31.9452 5.61216 568.04
-31.6689 5.35541 567.371
-31.4066 5.10142 566.949
-31.4179 5.35248 567.177
-31.6855 5.60766 567.694
-31.7016 5.8601 568.007
-31.1602 5.09926 566.833
-31.1713 5.35026 567.058
-30.8315 4.09006 565.107
-30.7818 3.58768 564.146
-30.5617 4.08478 564.544
-31.402 1.85173 562.25
-31.1629 2.09716 562.255
-31.8481 1.1131 561.654
-34.4914 -3.0573 561.803
-34.2454 -2.81225 561.681
-33.9996 -2.56728 561.562
-34.2534 -3.05911 561.791
-34.0086 -2.81415 561.689
-33.9922 -2.32064 561.462
-33.7473 -2.07584 561.355
-33.7544 -2.3224 561.451
-33.7624 -2.56911 561.562
-34.2645 -3.30635 561.95
-34.0268 -3.30822 561.945
-33.5025 -1.8311 561.251
-33.5094 -2.07758 561.344
-33.263 -1.83273 561.212
-41.6244 10.9679 586.647
-33.8008 -3.5576 562.111
-33.5646 -3.55965 562.132
-31.9175 -3.82166 562.401
-31.6821 -3.82393 562.447
-31.4562 -4.07414 562.638
-31.4668 -4.32237 562.804
-31.22 -4.07637 562.674
-31.4459 -3.8261 562.478
-33.3279 -3.56167 562.146
-33.0932 -3.5639 562.195
-32.6183 -3.56781 562.203
-32.8567 -3.56596 562.216
-32.38 -3.56968 562.193
-32.1427 -3.57167 562.202
-31.9082 -3.57397 562.261
-33.7903 -3.31021 561.959
-45.0672 10.2606 589.74
-45.3661 10.5313 590.429
-46.1529 10.285 590.979
-45.6422 10.5386 590.799
-45.917 10.5455 591.149
-45.0961 10.5254 590.137
-44.8347 10.5215 589.954
-46.1977 10.5537 591.571
-45.3964 10.7968 590.842
-44.5711 10.517 589.74
-44.0481 10.767 589.383
-43.4859 10.749 588.472
-43.5203 11.0154 588.956
-43.7963 11.0232 589.343
-44.3375 10.7778 589.943
-43.2546 11.0101 588.706
-43.2853 11.2759 589.143
-43.2223 10.7443 588.248
-42.3966 10.721 587.079
-41.8891 10.9732 586.901
-42.6624 10.7265 587.342
-42.1576 10.9795 587.205
-41.6469 11.231 586.985
-41.3921 11.2282 586.871
-31.6138 1.35834 561.738
-31.379 1.60368 561.815
-31.1411 1.84895 561.838
-30.9394 2.59092 562.569
-30.959 2.83984 562.951
-32.3087 0.376518 561.33
-32.5348 -0.114437 561.089
-32.0698 0.621289 561.328
-32.2949 0.130156 561.068
-32.288 -0.116 560.924
-31.8308 0.866104 561.325
-31.5954 1.11109 561.386
-33.2538 -1.34017 561.101
-33.257 -1.58636 561.133
-33.0115 -0.849567 561.06
-33.0107 -1.0956 561.023
-32.7686 -0.851082 560.96
-33.0141 -1.34178 561.058
-32.7701 -0.605047 561.01
-33.0191 -1.58806 561.12
-32.5287 -0.360524 560.96
-32.5267 -0.606574 560.902
-30.746 3.33594 563.466
-30.5357 3.83343 564.039
-30.9207 2.34241 562.205
-30.7186 3.08563 562.938
-30.5054 3.58203 563.454
-31.1467 4.84806 566.561
-30.9093 5.09634 566.633
-30.8515 4.34121 565.499
-30.8713 4.59267 565.887
-30.8914 4.84451 566.28
-30.5839 4.33604 564.981
-30.3125 4.33028 564.384
-31.4309 5.60404 567.436
-31.7181 6.11289 568.328
-31.4454 5.85612 567.723
-31.4611 6.10867 568.031
-31.1823 5.60147 567.284
-30.9246 5.34803 566.938
-30.9375 5.59956 567.2
-31.1952 5.85322 567.544
-31.2079 6.10516 567.8
-31.4785 6.36185 568.37
-30.6865 5.59652 567.001
-30.6079 4.58795 565.449
-30.2888 4.07904 563.917
-30.3369 4.58204 564.864
-30.0699 4.57665 564.343
-30.902 2.09422 561.84
-31.3591 1.35615 561.434
-34.0175 -3.06111 561.813
-33.5253 -2.57095 561.564
-33.7805 -3.06301 561.818
-33.5343 -2.81788 561.693
-33.5168 -2.32418 561.444
-33.2715 -2.07932 561.332
-33.2802 -2.32604 561.456
-33.555 -3.31232 561.994
-33.0258 -1.83449 561.21
-33.0355 -2.08118 561.353
-32.7911 -1.83639 561.254
-33.3188 -3.31435 562.015
-31.6728 -3.57617 562.304
-31.4371 -3.57837 562.346
-31.2108 -3.82842 562.533
-30.9756 -3.83074 562.586
-31.2014 -3.58056 562.387
-33.0827 -3.31639 562.04
-32.8463 -3.31841 562.06
-32.6079 -3.32024 562.047
-32.3699 -3.32212 562.042
-32.1343 -3.32424 562.079
-31.8995 -3.32646 562.132
-31.6648 -3.32869 562.187
-33.5438 -3.06496 561.83
-45.1278 10.7912 590.569
-44.8663 10.7872 590.388
-45.676 10.805 591.254
-45.9497 10.8117 591.588
-45.4283 11.0631 591.275
-44.6063 10.7836 590.225
-45.7111 11.0722 591.728
-45.9941 11.0812 592.178
-45.1578 11.0569 590.98
-44.8959 11.0529 590.795
-44.0836 11.0338 589.877
-43.5512 11.2813 589.394
-42.9828 11.0032 588.369
-43.0114 11.2683 588.78
-42.9476 10.7367 587.869
-43.8318 11.2904 589.84
-43.315 11.5418 589.566
-44.3722 11.0447 590.423
-42.7335 11.2597 588.358
-42.7614 11.5249 588.763
-43.0448 11.5351 589.257
-42.7936 11.7916 589.225
-42.7025 10.994 587.913
-42.4259 10.9857 587.504
-41.9178 11.2381 587.322
-42.1868 11.2446 587.631
-42.4605 11.2522 588.002
-41.6726 11.4953 587.366
-41.4145 11.4916 587.208
-41.1868 11.7539 587.502
-31.1223 1.60127 561.474
-31.3457 1.10918 561.17
-30.8856 1.84649 561.518
-30.6485 2.09177 561.555
-30.698 2.83642 562.536
-30.6795 2.58775 562.172
-30.458 3.0821 562.53
-30.4794 3.3316 562.948
-32.0552 0.374778 561.049
-32.0473 0.12854 560.888
-32.2854 -0.362078 560.856
-31.8176 0.619474 561.069
-31.8082 0.373114 560.88
-31.5817 0.864281 561.119
-32.0447 -0.117576 560.819
-32.0462 -0.363676 560.822
-32.2864 -0.608162 560.85
-31.8059 -0.119167 560.792
-31.5727 0.617799 560.936
-31.3357 0.862543 560.967
-31.1077 1.35409 561.186
-32.7759 -1.34345 561.041
-32.7833 -1.58986 561.143
-32.7713 -1.09722 560.984
-32.5335 -1.09889 560.973
-32.5292 -0.852693 560.923
-32.2922 -0.854366 560.927
-32.5401 -1.34522 561.065
-32.548 -1.59169 561.177
-32.0502 -0.609824 560.867
-30.2633 3.82797 563.416
-30.2417 3.57781 562.988
-30.0473 4.32534 563.895
-30.6627 2.33952 561.839
-30.4251 2.58502 561.871
-30.2205 3.32808 562.57
-30.0239 4.07429 563.429
-30.0023 3.8239 562.999
-30.6707 5.34454 566.684
-30.6523 5.09241 566.32
-30.6307 4.84008 565.895
-30.3647 4.83476 565.407
-30.3891 5.08739 565.886
-30.0954 4.82884 564.848
-29.8343 4.82419 564.438
-29.8106 4.57241 563.963
-30.9492 5.85111 567.441
-31.2234 6.35789 568.106
-31.2411 6.61137 568.453
-31.4998 6.61614 568.779
-30.9624 6.10315 567.708
-30.976 6.3555 567.982
-30.7023 5.8488 567.319
-30.7157 6.10088 567.592
-30.7308 6.35354 567.896
-30.9904 6.60828 568.272
-30.4449 5.84447 567.001
-30.43 5.59247 566.699
-30.1236 5.08193 565.403
-29.7876 4.32115 563.503
-29.8599 5.07672 564.948
-29.5742 4.81965 564.039
-29.5984 5.07182 564.527
-30.4098 2.337 561.563
-31.0972 1.10731 560.972
-30.8695 1.59905 561.199
-33.2986 -2.81987 561.72
-33.0526 -2.57477 561.597
-33.3087 -3.06705 561.868
-33.0623 -2.82182 561.739
-33.044 -2.32792 561.474
-32.7994 -2.08304 561.373
-32.8074 -2.32978 561.487
-32.5561 -1.83828 561.294
-32.5635 -2.08492 561.398
-33.0725 -3.06905 561.89
-31.4291 -3.33084 562.227
-31.1929 -3.33293 562.259
-30.966 -3.58281 562.437
-30.9574 -3.33511 562.305
-30.7229 -3.33741 562.371
-32.8357 -3.07099 561.902
-32.3612 -3.07482 561.914
-32.1262 -3.07696 561.961
-31.8911 -3.07909 562.007
-31.6558 -3.08121 562.051
-31.4202 -3.08332 562.092
-44.6389 11.05 590.674
-45.1851 11.3224 591.356
-45.4605 11.3298 591.712
-45.7501 11.3407 592.25
-44.9219 11.318 591.156
-45.2062 11.5866 591.65
-45.4876 11.5956 592.084
-46.0522 11.3546 592.944
-45.7903 11.61 592.789
-45.5154 11.8619 592.464
-44.6661 11.3154 591.053
-44.4032 11.311 590.855
-44.1217 11.3018 590.406
-43.8657 11.5576 590.314
-43.5832 11.5478 589.845
-42.5111 11.7814 588.741
-43.3441 11.8079 589.98
-43.075 11.8015 589.688
-42.8237 12.0582 589.659
-42.4839 11.5162 588.346
-42.2139 11.5094 588.028
-42.5382 12.047 589.136
-42.5664 12.3132 589.546
-41.9422 11.5021 587.684
-41.9694 11.7672 588.085
-42.238 11.7737 588.383
-41.4375 11.7555 587.554
-41.7012 11.7607 587.789
-41.205 12.0167 587.782
-40.9597 12.0168 587.81
-41.4619 12.0201 587.92
-40.9739 12.2787 588.034
-41.2265 12.2808 588.109
-30.6336 1.84421 561.256
-30.8591 1.35215 560.987
-31.0923 0.860873 560.86
-30.3972 2.08944 561.305
-30.6227 1.59714 561.032
-30.3868 1.84225 561.089
-30.1593 2.33466 561.329
-30.4387 2.83315 562.148
-30.2004 3.07882 562.169
-30.1859 2.83045 561.875
-29.9644 3.32484 562.237
-29.9823 3.57408 562.598
-31.8053 0.126946 560.804
-31.5679 0.371527 560.826
-31.5668 0.125367 560.783
-31.8096 -0.365304 560.832
-31.3306 0.616179 560.852
-31.3289 0.369956 560.797
-31.5699 -0.12077 560.814
-31.8142 -0.611494 560.89
-31.5741 -0.366946 560.865
-32.056 -0.856061 560.945
-31.3345 -0.122376 560.849
-31.0907 0.6146 560.807
-30.8528 0.859309 560.822
-30.854 1.10562 560.868
-30.6169 1.35048 560.901
-32.305 -1.34703 561.102
-32.298 -1.10064 561.005
-32.0632 -1.10241 561.048
-31.8206 -0.857781 560.979
-32.3128 -1.59354 561.214
-32.3203 -1.84013 561.321
-31.5792 -0.613183 560.931
-29.7651 4.07036 563.051
-29.7426 3.81996 562.6
-29.5497 4.56786 563.546
-30.1718 2.58237 561.587
-29.934 2.82782 561.615
-29.7249 3.57054 562.238
-29.5264 4.31669 563.076
-29.5079 4.06659 562.697
-30.4114 5.34007 566.326
-30.1485 5.33492 565.896
-29.8829 5.32923 565.409
-30.169 5.58752 566.306
-29.6205 5.32404 564.974
-29.3338 5.06634 564.041
-29.3577 5.31874 564.527
-30.4612 6.09704 567.33
-30.7437 6.606 568.16
-31.006 6.86157 568.583
-31.2628 6.86603 568.874
-30.7563 6.85861 568.417
-31.0237 7.11559 568.931
-31.2824 7.12058 569.255
-30.4927 6.60278 567.968
-30.4763 6.34964 567.637
-30.5078 6.85595 568.276
-30.2013 6.09207 566.964
-30.1856 5.83974 566.643
-30.2171 6.34471 567.287
-29.6394 5.57605 565.361
-29.9042 5.58182 565.837
-29.3083 4.81412 563.525
-29.3794 5.57112 564.969
-29.0898 5.31243 563.974
-29.1104 5.56444 564.4
-30.1504 2.08743 561.138
-29.9231 2.58009 561.385
-30.6154 1.1041 560.848
-30.3808 1.59548 560.954
-32.8252 -2.82371 561.745
-32.8162 -2.57668 561.615
-32.5807 -2.57867 561.647
-32.5886 -2.82564 561.761
-32.5718 -2.33172 561.518
-32.3284 -2.08686 561.438
-32.0858 -1.84206 561.371
-32.3367 -2.3337 561.558
-31.185 -3.08547 562.141
-30.9497 -3.08763 562.19
-30.7141 -3.08976 562.235
-30.4792 -3.09197 562.295
-30.2444 -3.0942 562.358
-30.7061 -2.84229 562.114
-32.3523 -2.82761 561.783
-32.1172 -2.82969 561.827
-31.8825 -2.83181 561.88
-31.6469 -2.83386 561.917
-31.4111 -2.8359 561.954
-31.1766 -2.83806 562.013
-44.9439 11.5823 591.464
-44.6904 11.5804 591.393
-45.2285 11.8513 591.96
-44.9649 11.8467 591.758
-44.4325 11.5773 591.264
-44.7112 11.8447 591.686
-45.2587 12.1184 592.373
-44.9884 12.112 592.086
-45.285 12.3849 592.736
