16.4669808 -55.9145100 656.1633348
16.7470034 -55.8956042 655.8558941
17.6145658 -55.9303202 656.0064554
17.8970266 -55.9202731 655.8030248
18.1836728 -55.9234470 655.7546854
18.4708219 -55.9281111 655.7238698
18.7553149 -55.9247732 655.5991173
19.0400276 -55.9222363 655.4839015
19.3263218 -55.9244081 655.4237604
19.6131561 -55.9281074 655.3816199
19.9004617 -55.9330955 655.3544402
20.1874319 -55.9370331 655.3150415
20.4754192 -55.9437200 655.3078890
20.7630135 -55.9491962 655.2864313
21.0495442 -55.9517667 655.2309990
21.3377066 -55.9585989 655.2254558
21.6206014 -55.9516400 655.0583839
21.9066571 -55.9530184 654.9890041
22.1959669 -55.9625961 655.0155878
22.4819966 -55.9638217 654.9444199
22.7669291 -55.9623726 654.8418403
23.0527334 -55.9631065 654.7649503
23.3385079 -55.9638254 654.6878219
23.6246679 -55.9654459 654.6213031
23.9118971 -55.9695959 654.5842886
24.2004916 -55.9768341 654.5834541
24.4885292 -55.9827052 654.5665264
24.7756075 -55.9863150 654.5231938
25.0625946 -55.9896491 654.4767618
25.3494754 -55.9927486 654.4273496
25.6368611 -55.9968948 654.3903351
25.9245373 -56.0016446 654.3602347
26.2106955 -56.0030900 654.2916894
26.4955591 -56.0017861 654.1908383
26.7808624 -56.0014881 654.1018486
27.0683710 -56.0057871 654.0665627
27.3563769 -56.0110584 654.0426016
27.6439115 -56.0153201 654.0068984
27.9305074 -56.0176186 653.9481878
28.2153431 -56.0164489 653.8490653
28.5014026 -56.0177192 653.7783146
28.7894867 -56.0229532 653.7538767
29.0787034 -56.0302883 653.7540555
29.3667093 -56.0352318 653.7262797
29.6513680 -56.0337789 653.6237597
31.6562690 -56.0470708 653.1802416
31.9397263 -56.0437664 653.0563235
32.2289728 -56.0506508 653.0510187
32.5213745 -56.0628623 653.1077623
32.8069068 -56.0631752 653.0259848
33.0934860 -56.0652725 652.9649496
33.3799012 -56.0670942 652.9006958
33.6679108 -56.0715795 652.8673768
33.9537971 -56.0724996 652.7925730
34.2402793 -56.0744256 652.7296305
34.5268436 -56.0764894 652.6681185
34.8137356 -56.0790636 652.6126266
35.1014212 -56.0829043 652.5719166
35.3875309 -56.0842082 652.5015831
35.6726274 -56.0839362 652.4128914
35.9616727 -56.0898446 652.3962617
37.9694998 -56.1067015 651.9939899
38.2654220 -56.1223999 652.0910263
38.5442898 -56.1130792 651.8971920
39.4135788 -56.1326146 651.8678069
39.7025421 -56.1378747 651.8433690
39.9780720 -56.1242290 651.5995264
40.2599238 -56.1195984 651.4603496
40.5510552 -56.1279170 651.4714956
40.8423580 -56.1363660 651.4841318
41.1291383 -56.1385602 651.4241099
41.4122976 -56.1358482 651.3072252
41.6969582 -56.1352111 651.2144804
43.7145643 -56.1638065 650.9480476
44.0004021 -56.1647229 650.8733630
44.2843139 -56.1632067 650.7703066
44.5702113 -56.1642423 650.6969333
44.8578969 -56.1675355 650.6496668
45.1459065 -56.1711974 650.6066918
45.4342775 -56.1752878 650.5686641
45.7205325 -56.1767556 650.5002379
46.0063070 -56.1776385 650.4251361
46.2955125 -56.1827049 650.3983736
46.5833023 -56.1860092 650.3512859
46.8672253 -56.1846793 650.2504349
47.1567400 -56.1900400 650.2271295
47.4472977 -56.1965965 650.2175331
47.7361977 -56.2011488 650.1848102
48.0202027 -56.1999381 650.0854492
48.3061746 -56.2010631 650.0130892
48.5953614 -56.2058948 649.9835849
48.8812216 -56.2068820 649.9096155
49.1680056 -56.2089272 649.8478651
49.4537540 -56.2097952 649.7725248
49.7446470 -56.2165044 649.7646570
50.0371195 -56.2249124 649.7765183
50.3232963 -56.2262200 649.7061849
51.7593324 -56.2384464 649.4206190
52.0537235 -56.2486351 649.4528651
50.0174724 -51.7808385 597.2386003
50.2817258 -51.7829433 597.1842408
50.5438074 -51.7828055 597.1041322
50.8078486 -51.7847016 597.0475078
51.0720722 -51.7867617 596.9926715
51.3369925 -51.7895445 596.9462395
51.6003668 -51.7907478 596.8815088
51.8678240 -51.7960340 596.8639255
52.1336645 -51.7996885 596.8275070
52.3996688 -51.8034771 596.7925787
52.6655950 -51.8071763 596.7565775
52.9298410 -51.8092029 596.7015028
53.1985797 -51.8156104 596.6967344
53.4634180 -51.8181957 596.6478586
-49.3582822 -50.7352538 617.8346872
-49.0948036 -50.7367887 617.7739501
-48.8320701 -50.7390983 617.7225709
-48.5666543 -50.7386215 617.6372766
-48.3026318 -50.7395938 617.5696254
-48.0402410 -50.7422686 617.5227165
-47.7774888 -50.7445671 617.4712777
-47.5155413 -50.7477261 617.4301505
-47.2519249 -50.7491231 617.3677444
-46.9856597 -50.7476442 617.2702909
-46.7214771 -50.7484041 617.2000766
-46.4585386 -50.7505015 617.1460748
-46.1940281 -50.7508628 617.0710325
-45.9299050 -50.7516749 617.0014739
-24.1232738 -55.2274287 663.6575460
-23.8378197 -55.2296117 663.5978222
-23.5536452 -55.2348681 663.5749936
-23.2695509 -55.2403592 663.5550857
-22.9839962 -55.2424192 663.4938717
-22.6980839 -55.2436225 663.4223461
-22.4121846 -55.2448556 663.3512974
-22.1254025 -55.2438647 663.2535458
-21.8403060 -55.2470386 663.2057428
-21.5569325 -55.2546866 663.2115841
-21.2709364 -55.2556813 663.1376147
-20.9833663 -55.2524701 663.0132198
-20.6979159 -55.2548505 662.9558802
-20.4127599 -55.2579798 662.9075408
-20.1265179 -55.2581772 662.8240347
-19.8410098 -55.2603304 662.7638936
-19.5560306 -55.2640967 662.7231240
-19.2714576 -55.2689955 662.6961231
-18.9876407 -55.2761592 662.6960635
-18.7022556 -55.2789085 662.6431346
-18.4151176 -55.2763864 662.5270247
-18.1278419 -55.2733466 662.4047160
-17.8426802 -55.2766956 662.3589396
-17.5580233 -55.2816577 662.3325944
-17.2728729 -55.2851260 662.2881889
-16.9872679 -55.2872159 662.2273922
-16.7023409 -55.2915037 662.1928811
-16.4175481 -55.2963689 662.1652842
-16.1324851 -55.3003773 662.1273756
-15.8475507 -55.3049557 662.0963812
-15.5612659 -55.3048439 662.0091200
-15.2745694 -55.3031079 661.9025469
-14.9884634 -55.3034469 661.8206501
-14.7029897 -55.3060696 661.7662311
-14.4175990 -55.3090833 661.7163420
-14.1325025 -55.3133041 661.6810560
-13.8466805 -55.3146861 661.6117358
-13.5613773 -55.3181879 661.5678072
-13.2764308 -55.3231798 661.5417004
-12.9915131 -55.3284921 661.5193486
-12.7063431 -55.3328544 661.4856124
-12.4200340 -55.3322136 661.3920927
-12.1341143 -55.3332977 661.3191962
-11.8485484 -55.3360023 661.2656713
-11.5636578 -55.3419366 661.2507701
-11.2781264 -55.3449281 661.2007022
-10.9922392 -55.3462468 661.1306071
-10.7060699 -55.3459860 661.0416174
-10.4205376 -55.3489774 660.9914899
-10.1348432 -55.3512387 660.9327197
-9.8494319 -55.3550944 660.8929634
-9.5636928 -55.3571396 660.8315706
-9.2784613 -55.3622246 660.8063579
-8.9925919 -55.3635955 660.7368588
-8.7061264 -55.3611144 660.6214643
-8.4201787 -55.3617962 660.5437994
-8.1345243 -55.3643219 660.4881883
-7.8491336 -55.3688332 660.4561806
-7.5634667 -55.3714558 660.4015827
-7.2776792 -55.3733073 660.3378654
-6.9922917 -55.3782284 660.3108048
-6.7067416 -55.3821214 660.2713466
-6.4210379 -55.3847663 660.2171659
-6.1352029 -55.3863831 660.1505876
-5.8493582 -55.3879254 660.0831151
-5.5631800 -55.3859994 659.9743366
-5.2771368 -55.3852543 659.8797441
-4.9915514 -55.3890355 659.8389745
-4.7060093 -55.3937182 659.8089933
-4.4204905 -55.3989708 659.7857475
-4.1349125 -55.4040410 659.7604156
-3.8488500 -55.4026067 659.6575379
-3.5630695 -55.4048382 659.5983505
-3.2772771 -55.4070398 659.5387459
-2.9916675 -55.4127768 659.5205665
-2.7058558 -55.4149747 659.4616175
-2.4200664 -55.4179437 659.4104767
-2.1342619 -55.4204285 659.3549848
-1.8483928 -55.4219857 659.2876911
-1.5626404 -55.4268882 659.2603326
-1.2767869 -55.4286316 659.1952443
-0.9910151 -55.4353818 659.1897607
-0.7051864 -55.4408729 659.1693163
-0.4192950 -55.4440841 659.1216922
-0.1333816 -55.4444641 659.0404510
0.1525297 -55.4492548 659.0115428
0.4384523 -55.4536805 658.9784622
0.7243347 -55.4512516 658.8638425
2.1539431 -55.4632246 658.5772634
2.4399790 -55.4677248 658.5448980
2.7256114 -55.4636009 658.4101915
3.0116504 -55.4679967 658.3766937
3.2976400 -55.4712787 658.3298445
3.5836389 -55.4742552 658.2794189
3.8694432 -55.4745086 658.1966877
4.1557606 -55.4817803 658.1972837
4.4425945 -55.4947890 658.2658887
4.7286656 -55.4974601 658.2117081
8.4460545 -55.5174612 657.3342681
8.7311957 -55.5140562 657.2083831
9.0176528 -55.5189513 657.1806073
9.3043493 -55.5252135 657.1689844
9.5897634 -55.5237904 657.0664644
9.8767988 -55.5316098 657.0732594
10.1635661 -55.5376522 657.0590734
11.0209873 -55.5400252 656.8300128
11.3072153 -55.5428937 656.7782760
11.5914056 -55.5361174 656.6125154
13.3111039 -55.5635504 656.4226747
13.5969725 -55.5647016 656.3506126
13.8826733 -55.5651337 656.2700272
14.1683389 -55.5655807 656.1896801
14.4560365 -55.5738807 656.2019587
18.4644163 -55.6105897 655.4358602
18.7488943 -55.6075945 655.3148627
19.0338288 -55.6060933 655.2116275
19.3200596 -55.6084365 655.1535726
19.6068138 -55.6122214 655.1125646
19.8933650 -55.6154028 655.0644040
20.1799795 -55.6186885 655.0174356
21.0403185 -55.6297302 654.8905373
21.3254280 -55.6289442 654.7957063
21.6105860 -55.6283519 654.7031999
21.8990780 -55.6363314 654.7107100
22.1876651 -55.6443408 654.7200084
22.4737618 -55.6460656 654.6547413
22.7587037 -55.6449518 654.5560360
23.0446998 -55.6464605 654.4881463
23.3296268 -55.6454398 654.3905139
23.6141998 -55.6436218 654.2835832
23.9025038 -55.6506552 654.2798877
24.1895784 -55.6546412 654.2419195
24.4771410 -55.6597412 654.2162895
24.7642621 -55.6637757 654.1781425
25.0508972 -55.6666590 654.1264057
25.3374204 -55.6692928 654.0716887
25.6238747 -55.6717440 654.0149450
25.9102173 -55.6739680 653.9555192
26.1959378 -55.6748472 653.8801789
26.4821462 -55.6767732 653.8172364
26.7692450 -55.6805618 653.7761092
27.0567667 -55.6851514 653.7444592
27.3438059 -55.6887276 653.7008882
27.6306421 -55.6918643 653.6520720
27.9174000 -55.6947999 653.6009312
28.2036941 -55.6968153 653.5390019
28.4891482 -55.6971729 653.4576416
28.7762936 -55.7008497 653.4151435
29.0642846 -55.7060950 653.3911824
29.3519162 -55.7106026 653.3584595
29.6366680 -55.7096563 653.2617211
29.9238116 -55.7131916 653.2176733
30.2130021 -55.7204932 653.2176733
32.5155482 -55.7565838 652.9559493
32.7948816 -55.7464734 652.7519822
33.0790356 -55.7447001 652.6456475
33.3704501 -55.7550937 652.6817679
33.6576216 -55.7583533 652.6343226
33.9403376 -55.7542294 652.5005698
34.2292450 -55.7603240 652.4862647
34.5169567 -55.7644032 652.4484158
34.8046534 -55.7684079 652.4097323
35.0945853 -55.7759553 652.4124742
35.3797413 -55.7758622 652.3258686
35.6654301 -55.7766445 652.2494555
35.9535702 -55.7812415 652.2176266
40.8299603 -55.8236167 651.2583494
41.1213413 -55.8321960 651.2729526
43.1142114 -55.8291487 650.6389380
43.4060544 -55.8380336 650.6569386
43.6925776 -55.8400117 650.5945325
44.2641862 -55.8421761 650.4487991
44.5545353 -55.8490157 650.4423618
44.8427647 -55.8530651 650.4046917
45.1306924 -55.8567531 650.3621340
45.4184599 -55.8602251 650.3170729
45.7030199 -55.8597445 650.2259374
45.9888615 -55.8608770 650.1536369
46.2784991 -55.8665842 650.1346231
46.5632491 -55.8663756 650.0467658
46.8475409 -55.8656640 649.9530077
47.1354127 -55.8692068 649.9086618
47.4257283 -55.8756143 649.8978138
47.7147326 -55.8804311 649.8683691
47.9978882 -55.8784232 649.7595310
48.2872017 -55.8835715 649.7339606
48.5726297 -55.8842048 649.6558785
48.8568656 -55.8835082 649.5622396
49.1448902 -55.8871292 649.5189667
49.4343787 -55.8924079 649.4948268
49.7283228 -55.9026413 649.5283246
50.0177033 -55.9076816 649.5013237
50.2987318 -55.9034124 649.3662596
51.7366752 -55.9184887 649.1141319
52.0269722 -55.9243746 649.0969658
50.0082746 -51.4994748 597.1092582
50.2724610 -51.5015684 597.0548391
50.5341999 -51.5011474 596.9713926
50.7969707 -51.5018143 596.9004631
51.0610454 -51.5037887 596.8446732
51.3237305 -51.5043773 596.7729092
51.5896007 -51.5081510 596.7379808
51.8553518 -51.5117981 596.7016220
52.1234497 -51.5177436 596.6918468
52.3887426 -51.5208729 596.6494679
52.6537597 -51.5237339 596.6039896
52.9190265 -51.5268221 596.5610147
53.1853326 -51.5308976 596.5296626
-49.3561141 -50.4649393 617.8258061
-49.0909107 -50.4646972 617.7433133
-48.8242470 -50.4629239 617.6419854
-48.5599749 -50.4636168 617.5708175
-48.2970364 -50.4657030 617.5167561
-48.0352901 -50.4690185 617.4777150
-47.7724560 -50.4712053 617.4249053
-47.5117639 -50.4756644 617.3999906
-47.2488403 -50.4777990 617.3464060
-46.9823368 -50.4760779 617.2458529
-46.7184223 -50.4771136 617.1789169
-46.4561582 -50.4799299 617.1337962
-46.1915992 -50.4802465 617.0580983
-45.9269583 -50.4804887 616.9815063
-24.3987869 -54.9140833 663.4907126
-24.1128802 -54.9150407 663.4162664
-23.8279290 -54.9181513 663.3678675
-23.5435031 -54.9225844 663.3353829
-23.2587382 -54.9262129 663.2932425
-22.9729023 -54.9273342 663.2207036
-22.6869825 -54.9282432 663.1456614
-22.4011932 -54.9294539 663.0743146
-22.1159607 -54.9320318 663.0194783
-21.8321420 -54.9381636 663.0074382
-21.5479396 -54.9434535 662.9852653
-21.2605931 -54.9406782 662.8657579
-20.9743492 -54.9407005 662.7800465
-20.6899662 -54.9456589 662.7534032
-20.4038676 -54.9459867 662.6718640
-20.1175865 -54.9458005 662.5835896
-19.8312178 -54.9453087 662.4917388
-19.5482597 -54.9544431 662.5154018
-19.2634314 -54.9583025 662.4763608
-18.9786404 -54.9623445 662.4392271
-18.6923593 -54.9621172 662.3504758
-18.4067879 -54.9639426 662.2865200
-18.1212109 -54.9657494 662.2222662
-17.8359412 -54.9684912 662.1693969
-17.5506398 -54.9711846 662.1158123
-17.2645543 -54.9713634 662.0320082
-16.9792622 -54.9741164 661.9791985
-16.6948438 -54.9797453 661.9610786
-16.4107010 -54.9864359 661.9556546
-16.1257908 -54.9906716 661.9206667
-15.8407670 -54.9945608 661.8814468
-15.5547392 -54.9950041 661.8008614
-15.2676320 -54.9915098 661.6728306
-14.9817774 -54.9924336 661.5980268
-14.6967638 -54.9964458 661.5602970
-14.4114876 -54.9995638 661.5119576
-14.1257038 -55.0007075 661.4397168
-13.8400728 -55.0023988 661.3740921
-13.5549093 -55.0060906 661.3326073
-13.2701714 -55.0115220 661.3118649
-12.9852649 -55.0164841 661.2855792
-12.6995118 -55.0178029 661.2155437
-12.4134226 -55.0177023 661.1284018
-12.1274106 -55.0178364 661.0441208
-11.8420590 -55.0209135 660.9951258
-11.5573285 -55.0270453 660.9828472
-11.2717533 -55.0292656 660.9236002
-10.9859165 -55.0302379 660.8493924
-10.7001439 -55.0314151 660.7775688
-10.4144495 -55.0329573 660.7102156
-10.1286024 -55.0337695 660.6340408
-9.8435497 -55.0387911 660.6084108
-9.5585864 -55.0446659 660.5929732
-9.2730625 -55.0473630 660.5394483
-8.9873625 -55.0490245 660.4734659
-8.7013338 -55.0487451 660.3842378
-8.4154876 -55.0493784 660.3058577
-8.1296498 -55.0500378 660.2278948
-7.8440970 -55.0524592 660.1710916
-7.5584911 -55.0546348 660.1112485
-7.2727841 -55.0561883 660.0439548
-6.9874516 -55.0605394 660.0102782
-6.7020929 -55.0649501 659.9773169
-6.4167595 -55.0697111 659.9483490
-6.1315573 -55.0759919 659.9377990
-5.8459020 -55.0782867 659.8793864
-5.5597299 -55.0756343 659.7617269
-5.2738171 -55.0752059 659.6707702
-4.9879556 -55.0750270 659.5826745
-4.7025117 -55.0797246 659.5530510
-4.4169752 -55.0833233 659.5103145
-4.1311909 -55.0839640 659.4321132
-3.8455944 -55.0870709 659.3834162
-3.5599545 -55.0897717 659.3298912
-3.2743125 -55.0926924 659.2789888
-2.9889159 -55.0998747 659.2791080
-2.7031919 -55.1020131 659.2187881
-2.4173753 -55.1019683 659.1323614
-2.1315424 -55.1006086 659.0303183
-1.8459166 -55.1052056 658.9994431
-1.5603052 -55.1104769 658.9766145
-1.2746219 -55.1148541 658.9431167
-0.9889649 -55.1210269 658.9310169
-0.7032074 -55.1233701 658.8732004
-0.4174409 -55.1272295 658.8334441
-0.1316617 -55.1281087 658.7581038
0.1541323 -55.1320165 658.7189436
0.4399109 -55.1340245 658.6571932
0.7257443 -55.1384464 658.6241126
2.1544576 -55.1404767 658.2190990
2.4403811 -55.1462881 658.2027674
2.7261805 -55.1484637 658.1428647
3.0121056 -55.1528372 658.1091285
3.2979802 -55.1561825 658.0632925
3.5836287 -55.1556051 657.9706073
3.8695289 -55.1590100 657.9254270
4.1555818 -55.1644377 657.9042673
4.4422918 -55.1772676 657.9715014
7.5844736 -55.1803336 657.0641994
7.8699719 -55.1802143 656.9769979
8.1571704 -55.1917925 657.0290327
8.4433230 -55.1957451 656.9902897
8.7284865 -55.1934764 656.8775773
9.0148114 -55.1983938 656.8503380
9.3011400 -55.2033037 656.8229795
9.5870234 -55.2054495 656.7627192
9.8740906 -55.2141294 656.7801833
10.1604890 -55.2189164 656.7513347
10.4447640 -55.2121587 656.5852165
10.7308896 -55.2154705 656.5388441
11.0158622 -55.2129671 656.4232707
12.1619068 -55.2327856 656.3158035
12.4467406 -55.2299321 656.1961770
12.7334427 -55.2354306 656.1757922
13.0204279 -55.2420095 656.1681628
13.3065954 -55.2448779 656.1164260
13.5924788 -55.2466176 656.0513973
13.8786128 -55.2493371 655.9979320
14.1636813 -55.2479252 655.8954120
14.4524006 -55.2605651 655.9597254
16.7432614 -55.2860610 655.5761695
17.0254204 -55.2754365 655.3644538
18.7403355 -55.2843809 654.9561024
19.0272294 -55.2890487 654.9257040
19.3141159 -55.2935973 654.8939347
19.6007695 -55.2974120 654.8534036
19.8868848 -55.2996956 654.7946930
20.1732218 -55.3025454 654.7426581
20.4598680 -55.3062223 654.7005773
20.7462665 -55.3091764 654.6498537
21.0322905 -55.3111471 654.5874476
21.3186760 -55.3140342 654.5359492
21.6043312 -55.3150177 654.4619203
21.8914077 -55.3196147 654.4305682
22.1792292 -55.3260036 654.4204950
22.4659443 -55.3295687 654.3768644
22.7512512 -55.3296655 654.2923450
23.0361708 -55.3288572 654.1970968
23.3213082 -55.3286597 654.1090608
23.6074813 -55.3308949 654.0498734
23.8943417 -55.3347580 654.0098190
24.1816007 -55.3394556 653.9795995
24.4687293 -55.3438142 653.9455056
24.7554611 -55.3472377 653.9002061
25.0418689 -55.3498715 653.8457274
25.3283381 -55.3526618 653.7929773
25.6145485 -55.3548373 653.7329555
25.9007663 -55.3570539 653.6735296
26.1870902 -55.3594753 653.6163688
26.4737364 -55.3625450 653.5669565
26.7603286 -55.3655066 653.5162330
27.0463545 -55.3672649 653.4513235
27.3310617 -55.3663708 653.3551812
27.6171956 -55.3683788 653.2931328
27.9042106 -55.3721264 653.2517672
28.1907767 -55.3749874 653.1999111
28.4768362 -55.3768128 653.1356573
28.7638046 -55.3804077 653.0924439
29.0517975 -55.3859062 653.0716419
29.6277478 -55.3966500 653.0269980
29.9138650 -55.3985313 652.9628634
30.1987715 -55.3980842 652.8726220
43.1011282 -55.5167757 650.4149437
43.3852896 -55.5159226 650.3193378
43.6723754 -55.5188097 650.2676606
44.5409827 -55.5365831 650.2190232
44.8271297 -55.5382036 650.1524448
45.1122485 -55.5385500 650.0709653
45.3997143 -55.5418096 650.0235200
45.6833504 -55.5403717 649.9211192
45.9703803 -55.5430911 649.8674154
46.2572947 -55.5456765 649.8121619
46.5431511 -55.5469617 649.7415900
46.8283668 -55.5475168 649.6625543
47.1150726 -55.5498265 649.6040225
47.4053472 -55.5563197 649.5943666
47.6934947 -55.5602796 649.5551467
47.9781292 -55.5601567 649.4681835
48.2672974 -55.5652678 649.4423747
48.5503115 -55.5633008 649.3338346
48.8281734 -55.5555113 649.1572857
49.1227880 -55.5667877 649.2035389
49.4203791 -55.5813126 649.2876410
49.7085862 -55.5851907 649.2475271
49.9920435 -55.5837564 649.1451263
49.9996729 -51.2188300 596.9869494
50.2617843 -51.2188636 596.9086289
50.5252555 -51.2202866 596.8464613
50.7866070 -51.2195677 596.7593193
51.0513633 -51.2222946 596.7124104
51.3149574 -51.2238555 596.6519117
51.5790433 -51.2259081 596.5969563
51.8447682 -51.2295738 596.5610147
52.1117672 -51.2344688 596.5393782
52.3781329 -51.2387082 596.5099335
52.6424050 -51.2408987 596.4567065
52.9081598 -51.2445197 596.4201689
53.1739108 -51.2481071 596.3832140
-49.3538044 -50.1944870 617.8150773
-49.0891002 -50.1947626 617.7388430
-48.8227271 -50.1933135 617.6412106
-48.5587306 -50.1942821 617.5734997
-48.2959673 -50.1965471 617.5216436
-48.0323769 -50.1979291 617.4589396
-47.7704331 -50.2010472 617.4175143
-47.5081354 -50.2038114 617.3719168
-47.2444370 -50.2051003 617.3080206
-46.9781347 -50.2035841 617.2097325
-46.7152335 -50.2056926 617.1560287
-46.4535430 -50.2091274 617.1184778
-46.1883098 -50.2087027 617.0336008
-45.9228866 -50.2080880 616.9463396
-24.3922826 -54.6108559 663.3582711
-24.1067279 -54.6124615 663.2916927
-23.8217618 -54.6154417 663.2416844
-23.5367436 -54.6183400 663.1907821
-23.2510287 -54.6196029 663.1199718
-22.9655355 -54.6213500 663.0551219
-22.6806812 -54.6246655 663.0092263
-22.3955773 -54.6273999 662.9563570
-22.1107658 -54.6308830 662.9124880
-21.8258966 -54.6342842 662.8676653
-21.5394758 -54.6337366 662.7749205
-21.2533120 -54.6338223 662.6898050
-20.9683273 -54.6369180 662.6413465
-20.6837337 -54.6411015 662.6059413
-20.3977879 -54.6417125 662.5272632
-20.1112721 -54.6407476 662.4295115
-19.8261105 -54.6434037 662.3755693
-19.5423570 -54.6500646 662.3703241
-19.2576926 -54.6542630 662.3350978
-18.9723913 -54.6566732 662.2782350
-18.6874047 -54.6600372 662.2328758
-18.4032843 -54.6660051 662.2190475
-18.1194004 -54.6728484 662.2160077
-17.8332031 -54.6727516 662.1286869
-17.5473467 -54.6736382 662.0532870
-16.6914035 -54.6814390 661.8895531
-16.4063629 -54.6849892 661.8464589
-16.1213242 -54.6886474 661.8046165
-15.8362091 -54.6920188 661.7593765
-15.5502437 -54.6925329 661.6795063
-15.2638778 -54.6915643 661.5817547
-14.9781723 -54.6928495 661.5112424
-14.6928886 -54.6957254 661.4599228
-14.4065507 -54.6946153 661.3605022
-14.1212950 -54.6975695 661.3101959
-13.8361482 -54.7009893 661.2654328
-13.5511011 -54.7048822 661.2265110
-13.2663297 -54.7100194 661.2024903
-12.9806157 -54.7113679 661.1327529
-12.6951402 -54.7136143 661.0739231
-12.4092875 -54.7142401 660.9953642
-12.1232830 -54.7141843 660.9086394
-11.8376296 -54.7156259 660.8400345
-11.5527445 -54.7206849 660.8151197
-11.2680476 -54.7267981 660.8029604
-10.9823858 -54.7284000 660.7362628
-10.6960433 -54.7264256 660.6263518
-10.4101626 -54.7266528 660.5430841
-10.1248641 -54.7300130 660.4976058
-9.8398477 -54.7349937 660.4716778
-9.5546572 -54.7391735 660.4361534
-9.2691602 -54.7416322 660.3798270
-8.9838784 -54.7454059 660.3392959
-8.6983135 -54.7476113 660.2799296
-8.4124189 -54.7477044 660.1949930
-8.1266910 -54.7487438 660.1215005
-7.8408625 -54.7489896 660.0385308
-7.5552086 -54.7504351 659.9699259
-7.2698146 -54.7537804 659.9242687
-6.9840825 -54.7546297 659.8485112
-6.6985288 -54.7568202 659.7889662
-6.4135971 -54.7643453 659.7936153
-6.1284211 -54.7701865 659.7779989
-5.8428491 -54.7728240 659.7237587
-5.5572158 -54.7747761 659.6612930
-5.2712900 -54.7737889 659.5634222
-4.9855178 -54.7741130 659.4813466
-4.6999906 -54.7771938 659.4324112
-4.4143414 -54.7787435 659.3651175
-4.1285260 -54.7781698 659.2722535
-3.8429219 -54.7801256 659.2098475
-3.5573093 -54.7820516 659.1470242
-3.2718587 -54.7868460 659.1187716
-2.9865203 -54.7939092 659.1178179
-2.7008282 -54.7952391 659.0477824
-2.4150601 -54.7944941 658.9529514
-2.1293489 -54.7946878 658.8693261
-1.8438101 -54.7994412 658.8405371
-1.5582207 -54.8034161 658.8023305
-1.2726206 -54.8079386 658.7707400
-0.9869537 -54.8095256 658.7038636
-0.7012653 -54.8105054 658.6297154
-0.4155906 -54.8111647 658.5516930
-0.1299373 -54.8153073 658.5155129
0.1557514 -54.8195206 658.4801674
0.4414336 -54.8227616 658.4331989
0.7271756 -54.8285246 658.4164500
1.0129086 -54.8310764 658.3611369
1.2985083 -54.8282824 658.2416296
1.5840271 -54.8243858 658.1089497
1.8695188 -54.8213758 657.9869390
2.1554171 -54.8297204 658.0011249
2.4412104 -54.8345111 657.9727530
2.7270287 -54.8391901 657.9429507
3.0127012 -54.8404902 657.8726172
3.2984966 -54.8442900 657.8323245
3.5842357 -54.8466444 657.7746868
3.8700961 -54.8507906 657.7384472
4.1559581 -54.8545271 657.6973200
4.4418774 -54.8587218 657.6616764
4.7271680 -54.8554175 657.5362086
5.0125881 -54.8540168 657.4335098
5.2986946 -54.8602082 657.4218273
5.5845575 -54.8634492 657.3747396
5.8700205 -54.8629947 657.2833657
6.1558923 -54.8662990 657.2371125
6.4409957 -54.8628829 657.1103334
6.7275823 -54.8720732 657.1345329
7.0136143 -54.8762940 657.0991278
7.2989776 -54.8752844 657.0011973
7.5839381 -54.8716262 656.8714976
7.8696739 -54.8737235 656.8107009
8.1560304 -54.8800565 656.8007469
8.4418198 -54.8823513 656.7422748
8.7276213 -54.8847057 656.6845179
9.0138922 -54.8898987 656.6609144
9.3000913 -54.8945069 656.6300988
9.5864655 -54.8998900 656.6086411
9.8727029 -54.9043380 656.5759778
10.1580173 -54.9036674 656.4820409
10.4427971 -54.9002849 656.3557386
10.7279988 -54.8993610 656.2588215
11.0143730 -54.9044721 656.2341452
11.3021843 -54.9163148 656.2898159
11.8748834 -54.9251176 656.2232375
12.1586937 -54.9179204 656.0513973
12.4444105 -54.9194887 655.9843421
12.7316136 -54.9275391 655.9946537
13.0183306 -54.9331978 655.9762955
13.3036822 -54.9331196 655.8895707
13.5900388 -54.9371801 655.8517218
13.8756167 -54.9380071 655.7762623
14.1621474 -54.9426302 655.7456255
14.4488141 -54.9476743 655.7199359
14.7339469 -54.9468286 655.6239128
15.0203491 -54.9507551 655.5850506
15.3084118 -54.9605377 655.6158662
16.7369675 -54.9669378 655.2630067
17.0219205 -54.9658425 655.1641226
17.3045229 -54.9573340 654.9768448
17.8791191 -54.9702682 654.9594402
18.1665644 -54.9769439 654.9531221
18.4519161 -54.9772531 654.8710465
18.7361427 -54.9742915 654.7499895
19.0225448 -54.9777783 654.7057033
19.3093438 -54.9823567 654.6743512
19.5958428 -54.9859777 654.6317339
19.8812149 -54.9864732 654.5517445
20.1676507 -54.9898706 654.5064449
20.4549469 -54.9955629 654.4883847
20.7415223 -54.9992211 654.4461250
21.0275371 -55.0013930 654.3861628
21.3129781 -55.0020821 654.3086171
21.5981547 -55.0020896 654.2229056
21.8851641 -55.0067760 654.1928053
22.1722499 -55.0115705 654.1640759
22.4591810 -55.0159328 654.1301012
22.7452312 -55.0180897 654.0700197
23.0309870 -55.0195202 654.0012360
23.3173855 -55.0224967 653.9508700
23.6045476 -55.0272204 653.9211869
23.8914024 -55.0311729 653.8823843
24.1778679 -55.0341830 653.8323164
24.4644303 -55.0373830 653.7846327
24.7511603 -55.0409555 653.7412405
25.0378624 -55.0443865 653.6962390
25.3241900 -55.0470129 653.6415815
25.6102439 -55.0489835 653.5792351
25.8959327 -55.0502092 653.5080075
26.1815619 -55.0513230 653.4354687
26.4669247 -55.0518893 653.3564329
26.7520454 -55.0519973 653.2719731
27.0374902 -55.0527871 653.1956196
27.3231026 -55.0539456 653.1236768
27.6089199 -55.0555326 653.0566812
27.8959852 -55.0595857 653.0190110
28.1832591 -55.0640039 652.9856324
28.4695514 -55.0664514 652.9289484
28.7551545 -55.0676025 652.8568864
29.0419813 -55.0710633 652.8121233
29.9051274 -55.0862029 652.7343988
30.1931575 -55.0917089 652.7138352
30.4807220 -55.0962947 652.6823640
30.7672359 -55.0989658 652.6283026
31.0430117 -55.0825670 652.3483396
43.0810936 -55.1957078 650.0861049
43.3665738 -55.1967323 650.0124931
43.6504111 -55.1956706 649.9144435
44.5218496 -55.2174672 649.9140859
44.8107012 -55.2225821 649.8886943
45.0954959 -55.2226938 649.8042941
45.3802422 -55.2227683 649.7195363
45.6639491 -55.2215986 649.6201754
45.9507182 -55.2241579 649.5646238
46.2365150 -55.2255586 649.4954228
46.5211459 -55.2255623 649.4098306
46.8054153 -55.2251786 649.3197083
47.0908619 -55.2261807 649.2459178
47.3857410 -55.2382097 649.3017077
47.6719439 -55.2400425 649.2376924
47.9552969 -55.2386045 649.1351128
48.2409522 -55.2398562 649.0641832
49.1073318 -55.2541949 648.9758492
49.4024977 -55.2660525 649.0294933
49.6817641 -55.2600995 648.8739848
49.9673225 -55.2611947 648.8012075
49.9905944 -50.9378165 596.8590975
50.2530597 -50.9382747 596.7856050
50.5137034 -50.9368964 596.6905951
50.7793576 -50.9406030 596.6549516
51.0437824 -50.9430133 596.6047049
51.3076447 -50.9448946 596.5478420
51.5715517 -50.9468019 596.4913964
51.8385172 -50.9517267 596.4702368
52.1028079 -50.9539954 596.4179635
52.3688346 -50.9579517 596.3854790
52.6337661 -50.9608239 596.3402987
52.8982952 -50.9632938 596.2904096
53.1663708 -50.9691648 596.2802768
-49.3542030 -49.9267690 617.8381443
-49.0883477 -49.9259047 617.7476048
-48.8220118 -49.9245189 617.6506281
-48.5584363 -49.9259233 617.5882220
-48.2955463 -49.9280654 617.5349355
-48.0312929 -49.9287657 617.4637675
-47.7696024 -49.9321446 617.4257398
-47.5065038 -49.9340594 617.3695922
-47.2404473 -49.9328561 617.2748804
-46.9762534 -49.9336049 617.2043085
-46.7142351 -49.9366485 617.1621680
-46.4511625 -49.9385744 617.1061993
-46.1870283 -49.9393605 617.0360446
-45.9219553 -49.9391295 616.9534326
-24.3890807 -54.3150716 663.3152962
-24.1037197 -54.3170832 663.2535458
-23.8191355 -54.3208793 663.2137299
-23.5332325 -54.3217137 663.1376147
-23.2470687 -54.3218590 663.0531549
-22.9621772 -54.3250032 663.0053520
-22.6782598 -54.3304831 662.9860401
-22.3932788 -54.3334931 662.9365087
-22.1078768 -54.3355234 662.8750563
-21.8226146 -54.3378703 662.8174186
-21.5369500 -54.3391928 662.7473831
-21.2515257 -54.3411523 662.6849771
-20.9670588 -54.3455668 662.6526713
-20.6824187 -54.3496348 662.6160741
-20.3963015 -54.3498360 662.5322700
-20.1093815 -54.3477610 662.4207497
-19.8247675 -54.3519184 662.3852253
-19.5410345 -54.3586612 662.3812318
-19.2561802 -54.3622747 662.3390317
-18.9709608 -54.3649346 662.2852087
-18.6880752 -54.3744415 662.3151302
-18.4035581 -54.3793291 662.2881293
-18.1198996 -54.3868840 662.2939706
-17.8351849 -54.3914475 662.2633338
-17.5495185 -54.3930791 662.1969342
-17.2633212 -54.3930829 662.1107459
-16.9768482 -54.3921217 662.0128155
-16.6906733 -54.3920510 661.9257927
-16.4053328 -54.3946587 661.8713140
-16.1202978 -54.3983132 661.8295908
-15.8351623 -54.4016697 661.7842317
-15.5496234 -54.4037260 661.7230773
-15.2634243 -54.4034056 661.6329551
-14.9775986 -54.4043817 661.5586281
-14.6913389 -54.4036999 661.4642143
-14.4057861 -54.4055849 661.4009142
-14.1205844 -54.4087850 661.3536477
-13.8354097 -54.4121601 661.3084674
-13.5497367 -54.4136353 661.2402201
-13.2648293 -54.4182099 661.2096429
-12.9797719 -54.4222854 661.1730456
-12.6946513 -54.4262230 661.1347198
-12.4086989 -54.4265509 661.0525250
-12.1225603 -54.4259697 660.9592438
-11.8365809 -54.4260405 660.8739495
-11.5518430 -54.4318296 660.8581543
-11.2670809 -54.4376858 660.8430743
-10.9812021 -54.4383228 660.7646942
-10.6942821 -54.4334389 660.6191993
-10.4090478 -54.4370748 660.5772376
-10.1236021 -54.4396788 660.5226994
-9.8382588 -54.4429049 660.4756713
-9.5525235 -54.4439740 660.4024768
-9.2669865 -54.4461273 660.3424549
-8.9820717 -54.4520617 660.3283286
-8.6975275 -54.4606708 660.3466272
-8.4119625 -54.4630066 660.2887511
-8.1256619 -54.4605069 660.1722836
-7.8398632 -54.4612072 660.0947380
-7.5543299 -54.4635952 660.0375175
-7.2687031 -54.4654354 659.9736810
-6.9829132 -54.4660278 659.8947048
-6.6971122 -54.4664077 659.8132253
-6.4116539 -54.4694662 659.7641706
-6.1263577 -54.4741265 659.7344875
-5.8408328 -54.4770285 659.6835852
-5.5553685 -54.4804707 659.6391797
-5.2697510 -54.4826537 659.5794559
-4.9840282 -54.4835366 659.5040560
-4.6985582 -54.4872731 659.4631076
-4.4126576 -54.4859692 659.3613029
-4.1267434 -54.4841364 659.2530012
-3.8411350 -54.4861183 659.1908932
-3.5554781 -54.4871092 659.1168046
-3.2700717 -54.4924699 659.0955853
-2.9845783 -54.4964485 659.0576768
-2.6990098 -54.4997603 659.0116024
-2.4132377 -54.4985272 658.9106321
-2.1275897 -54.4996783 658.8385105
-1.8420675 -54.5049161 658.8156819
-1.5564699 -54.5076914 658.7631702
-1.2708553 -54.5109063 658.7160230
-0.9851488 -54.5093790 658.6114764
-0.6994796 -54.5086376 658.5164070
-0.4138461 -54.5084439 658.4280729
-0.1282418 -54.5143262 658.4131122
0.1573924 -54.5182899 658.3749056
0.4430518 -54.5241423 658.3594680
0.7287358 -54.5266606 658.3038568
1.0143906 -54.5282811 658.2373381
1.2999589 -54.5268096 658.1336260
1.5856192 -54.5289963 658.0739617
1.8712095 -54.5292944 657.9914689
2.1569503 -54.5336939 657.9585671
2.4426561 -54.5369089 657.9113007
2.7284401 -54.5414053 657.8795314
3.0141596 -54.5442179 657.8273773
3.2999383 -54.5477904 657.7844620
3.5856119 -54.5494892 657.7189565
3.8712635 -54.5508489 657.6493382
4.1569909 -54.5534678 657.5948000
4.4425721 -54.5540527 657.5159431
4.7282940 -54.5564592 657.4588418
5.0139362 -54.5579419 657.3907137
5.2999621 -54.5633659 657.3700309
5.5856258 -54.5649603 657.3032737
5.8711823 -54.5656234 657.2252512
6.1569423 -54.5680486 657.1684480
6.4423578 -54.5675717 657.0767164
6.7283427 -54.5720495 657.0445895
7.0139086 -54.5729063 656.9690108
7.2995145 -54.5741431 656.8978429
7.5853164 -54.5769297 656.8453908
7.8711342 -54.5797162 656.7929983
8.1568873 -54.5819402 656.7337513
8.4428368 -54.5854494 656.6899419
8.7288246 -54.5892045 656.6491127
9.0149390 -54.5934662 656.6144228
9.3012154 -54.5985922 656.5901041
9.5872190 -54.6019822 656.5448642
9.8728891 -54.6033792 656.4757228
10.1587567 -54.6059720 656.4208865
10.4447128 -54.6088405 656.3693881
10.7306587 -54.6117350 656.3182473
11.0170497 -54.6167418 656.2923789
11.3036698 -54.6226613 656.2775970
11.5898736 -54.6264835 656.2374830
11.8743964 -54.6224266 656.1027765
12.1600060 -54.6235591 656.0304165
12.4459630 -54.6262413 655.9766531
12.7321202 -54.6297543 655.9328437
13.0173294 -54.6292737 655.8411121
13.3025171 -54.6287112 655.7484865
13.5883754 -54.6309762 655.6897759
13.8759157 -54.6398461 655.7102203
14.1629018 -54.6463318 655.7020545
14.4488765 -54.6487793 655.6454897
14.7346267 -54.6503626 655.5784941
15.0214434 -54.6558574 655.5584669
15.3053058 -54.6506681 655.4103494
17.0205403 -54.6632372 655.0453305
17.3033345 -54.6555705 654.8675895
17.5896809 -54.6592772 654.8261046
17.8783052 -54.6698868 654.8672915
18.1662589 -54.6781830 654.8807621
18.4533056 -54.6836145 654.8598409
18.7387411 -54.6842180 654.7811627
19.0244392 -54.6856225 654.7120214
19.3095524 -54.6854027 654.6235085
19.8808368 -54.6880327 654.4831395
20.1666392 -54.6897873 654.4182897
20.4533767 -54.6940677 654.3835998
20.7397100 -54.6971895 654.3350220
21.0258123 -54.6997078 654.2792320
21.3106405 -54.6989366 654.1841030
21.5948969 -54.6967685 654.0723443
21.8812134 -54.6998717 654.0235281
22.1687891 -54.7060408 654.0114284
22.4560872 -54.7114387 653.9899707
22.7431953 -54.7162816 653.9620161
23.0315421 -54.7239855 653.9682150
23.3200155 -54.7318719 653.9766192
23.6086864 -54.7400340 653.9881825
23.8960683 -54.7451340 653.9631486
24.1819415 -54.7467023 653.8959742
24.4675968 -54.7478162 653.8234353
24.7548651 -54.7525138 653.7936330
25.0426494 -54.7582619 653.7762880
25.3278669 -54.7583997 653.6920667
25.6116372 -54.7554567 653.5710096
25.8958563 -54.7535755 653.4627080
26.1804741 -54.7526293 653.3654928
26.4650322 -54.7515824 653.2672048
26.7503299 -54.7521561 653.1881094
27.0360522 -54.7535755 653.1192064
27.3211766 -54.7538325 653.0364156
27.6072025 -54.7559112 652.9753208
27.8954450 -54.7623225 652.9659629
28.1839725 -54.7692142 652.9622674
28.4692962 -54.7698252 652.8836489
28.7530925 -54.7675639 652.7708769
29.0389787 -54.7693148 652.7058482
29.3267835 -54.7746606 652.6837945
29.6156649 -54.7819324 652.6845694
29.9046133 -54.7892191 652.6855230
30.1925167 -54.7945052 652.6626348
30.4809269 -54.8006371 652.6497602
30.7703428 -54.8084937 652.6575089
31.0585722 -54.8141599 652.6390314
31.3436948 -54.8142903 652.5547504
36.7621705 -54.8238866 651.0383487
37.0488316 -54.8267998 650.9872675
37.3353213 -54.8294261 650.9325504
37.6230776 -54.8339076 650.9000063
37.9165858 -54.8466593 650.9656310
40.7730341 -54.8600480 650.2667665
41.0691872 -54.8754781 650.3639817
41.3534045 -54.8748821 650.2711177
41.6301340 -54.8644364 650.0616074
41.9181734 -54.8689775 650.0295997
42.2025025 -54.8686460 649.9400139
42.4853414 -54.8664331 649.8280764
42.7754298 -54.8735745 649.8268843
43.6407253 -54.8883043 649.7442126
43.9244770 -54.8872910 649.6464014
44.2109816 -54.8897386 649.5896578
44.5005670 -54.8959747 649.5777369
44.7935686 -54.9063534 649.6148109
45.0751930 -54.9028404 649.4866014
45.3596748 -54.9026877 649.3999362
45.6459038 -54.9047366 649.3384838
45.9338985 -54.9088977 649.3020654
46.2163165 -54.9064167 649.1870284
46.4993455 -54.9046919 649.0809321
46.7892736 -54.9111292 649.0712762
47.0719859 -54.9090840 648.9614248
47.3629609 -54.9166799 648.9654779
47.6467498 -54.9159013 648.8706470
47.9293168 -54.9137667 648.7597227
48.2178852 -54.9185164 648.7301588
48.5079065 -54.9248718 648.7195492
49.3769087 -54.9424589 648.6701369
49.6568121 -54.9374372 648.5251188
49.9432869 -54.9397059 648.4662294
49.9819778 -50.6573990 596.7367291
50.2428003 -50.6562591 596.6444016
50.5065694 -50.6580845 596.5870619
50.7733487 -50.6629311 596.5652466
51.0378033 -50.6654195 596.5155959
51.3046533 -50.6702848 596.4939594
51.5693203 -50.6729670 596.4465737
51.8322922 -50.6739803 596.3796377
52.0969890 -50.6767035 596.3326097
52.3606986 -50.6784245 596.2741971
52.6248999 -50.6806448 596.2213278
52.8912507 -50.6849214 596.1924791
53.1575717 -50.6891161 596.1632133
-49.3542850 -49.6587344 617.8573966
-49.0881205 -49.6575646 617.7629232
-48.8237254 -49.6581793 617.6906228
-48.5601537 -49.6596247 617.6286340
-48.2967906 -49.6612899 617.5694466
-48.0314493 -49.6608838 617.4844503
-47.7675907 -49.6620126 617.4185872
-47.5036018 -49.6629812 617.3506975
-47.2375043 -49.6617481 617.2554493
-46.9739251 -49.6631414 617.1928644
-46.7123128 -49.6666059 617.1559691
-46.4492068 -49.6685058 617.0995831
-46.1868644 -49.6712029 617.0532703
-45.9233448 -49.6726707 616.9915795
-24.3916325 -54.0321022 663.4290814
-24.1060499 -54.0337190 663.3626223
-23.8201469 -54.0346019 663.2870436
-23.5338733 -54.0346950 663.2018685
-23.2478511 -54.0352203 663.1219387
-22.9634345 -54.0395491 663.0886793
-22.6795506 -54.0451594 663.0711555
-22.3943219 -54.0476479 663.0153060
-22.1088603 -54.0496297 662.9532576
-21.8236372 -54.0521815 662.8981829
-21.5383153 -54.0544391 662.8395319
-21.2529954 -54.0567450 662.7814174
-20.9677778 -54.0593602 662.7271771
-20.6831191 -54.0634580 662.6910567
-20.3973558 -54.0646687 662.6195908
-20.1113876 -54.0652685 662.5406146
-19.8265575 -54.0689938 662.4999046
-19.5433330 -54.0772229 662.5148058
-19.2586966 -54.0816598 662.4823809
-18.9741123 -54.0862903 662.4526978
-18.6903831 -54.0934727 662.4543667
-18.4071306 -54.1022420 662.4754071
-18.1234311 -54.1099049 662.4827981
-17.8388953 -54.1152656 662.4620557
-17.5536200 -54.1183650 662.4137163
-17.2674730 -54.1188419 662.3330712
-16.9800986 -54.1153476 662.2039676
-16.6936815 -54.1146994 662.1096730
-16.4075606 -54.1150197 662.0272994
-16.1219388 -54.1169196 661.9642377
-15.8363301 -54.1189052 661.9020700
-15.5509682 -54.1217104 661.8500948
-15.2657656 -54.1251227 661.8055105
-14.9798179 -54.1259646 661.7295146
-14.6940229 -54.1272610 661.6589427
-14.4082475 -54.1286580 661.5897417
-14.1224293 -54.1297942 661.5172625
-13.8368392 -54.1318320 661.4558697
-13.5513004 -54.1341081 661.3973975
-13.2658221 -54.1366152 661.3416672
-12.9809212 -54.1415922 661.3161564
-12.6960184 -54.1466102 661.2911224
-12.4110971 -54.1517511 661.2675786
-12.1247489 -54.1507341 661.1688137
-11.8361805 -54.1393273 660.9433889
-11.5530547 -54.1528314 661.0218287
-11.2685263 -54.1601628 661.0251069
-10.9832194 -54.1639328 660.9847546
-10.6947655 -54.1518889 660.7515216
-10.4095265 -54.1557781 660.7126594
-10.1242503 -54.1596375 660.6734395
-9.8387590 -54.1623235 660.6199741
-9.5526995 -54.1619435 660.5290771
-9.2674997 -54.1663431 660.4964733
-8.4126610 -54.1856699 660.4732275
-8.1262840 -54.1832782 660.3577137
-7.8399060 -54.1804396 660.2368951
-7.5544086 -54.1835986 660.1890922
-7.2688716 -54.1865937 660.1393223
-6.9827219 -54.1849658 660.0332856
-6.6968766 -54.1854911 659.9533558
-6.4111841 -54.1870408 659.8861217
-6.1251996 -54.1861318 659.7886682
-5.8397930 -54.1902706 659.7528458
-5.5545387 -54.1960634 659.7371101
-5.2688373 -54.1978143 659.6722603
-4.9833329 -54.2015731 659.6317291
-4.6978872 -54.2063527 659.6036553
-4.4119884 -54.2057380 659.5099568
-4.1261003 -54.2051122 659.4160795
-3.8401866 -54.2036965 659.3126655
-3.5545400 -54.2057864 659.2518687
-3.2689921 -54.2095080 659.2108607
-2.9834174 -54.2130992 659.1684222
-2.6978285 -54.2171039 659.1307521
-2.4119704 -54.2152748 659.0223312
-2.1262770 -54.2163812 658.9496732
-1.8406227 -54.2188995 658.8940024
-1.5550252 -54.2232245 658.8603258
-1.2693312 -54.2251281 658.7973237
-0.9835799 -54.2230010 658.6852670
-0.6978814 -54.2218238 658.5847735
-0.4122125 -54.2220734 658.5016251
-0.1265845 -54.2267114 658.4717631
0.1590798 -54.2308837 658.4362388
0.4447661 -54.2364530 658.4177017
0.7304612 -54.2387590 658.3594680
1.0161567 -54.2415008 658.3066583
1.3018057 -54.2416349 658.2220197
1.5875186 -54.2443283 658.1685543
1.8731909 -54.2457663 658.0998302
2.1589508 -54.2496108 658.0603123
2.4446638 -54.2518161 658.0008864
2.7304592 -54.2559512 657.9648852
3.0162358 -54.2589501 657.9150558
3.3019832 -54.2613193 657.8575969
3.5877011 -54.2631522 657.7937007
3.8733205 -54.2638563 657.7161551
4.1590296 -54.2657636 657.6530933
4.4446159 -54.2659909 657.5697064
4.7303918 -54.2687662 657.5171351
5.0160941 -54.2705581 657.4527025
5.3018481 -54.2729534 657.3956013
5.5877808 -54.2769469 657.3578715
5.8735097 -54.2789735 657.2961807
6.1593130 -54.2817079 657.2432518
6.4447396 -54.2810373 657.1488976
6.7302380 -54.2811677 657.0643783
7.0160166 -54.2836674 657.0085287
7.3017552 -54.2857945 656.9482088
7.5878790 -54.2907305 656.9218040
7.8742048 -54.2966686 656.9075584
8.1600016 -54.2989783 656.8493843
8.4460964 -54.3030687 656.8127275
8.7324129 -54.3085039 656.7922831
9.0181064 -54.3097928 656.7217112
9.3038613 -54.3116443 656.6580534
9.5899142 -54.3151498 656.6143036
9.8754372 -54.3155670 656.5332413
10.1615116 -54.3190502 656.4892530
10.4489494 -54.3294996 656.5294266
10.7352072 -54.3336384 656.4933062
11.0205254 -54.3329306 656.3986540
11.3069396 -54.3376096 656.3693881
11.5925837 -54.3386601 656.2956572
11.8777510 -54.3374270 656.1945677
12.1631222 -54.3373153 656.1071873
12.4498066 -54.3430261 656.0900211
12.7356639 -54.3450192 656.0280323
13.0218100 -54.3481968 655.9806466
13.3081973 -54.3523580 655.9444070
13.8817765 -54.3635152 655.9067965
14.1683081 -54.3679036 655.8736563
14.4530917 -54.3656126 655.7599306
14.7379972 -54.3638878 655.6530595
15.0256781 -54.3723702 655.6692719
17.5917652 -54.3678440 654.8401713
17.8814065 -54.3814860 654.9183726
18.1700606 -54.3917790 654.9562812
18.4575263 -54.3983243 654.9490094
18.7439062 -54.4015653 654.9020410
20.4579886 -54.4091165 654.4765830
20.7436141 -54.4102676 654.4044018
21.0295171 -54.4121750 654.3412805
21.3142056 -54.4109903 654.2410254
21.5981752 -54.4080734 654.1199088
21.8849052 -54.4121452 654.0828347
22.1733917 -54.4204414 654.0966034
22.4620961 -54.4291474 654.1152000
22.7513891 -54.4390678 654.1483998
23.0414309 -54.4505604 654.2004347
23.3322494 -54.4636361 654.2714834
23.6246586 -54.4799343 654.3824077
23.9136033 -54.4883385 654.3959975
24.2008176 -54.4925146 654.3600559
24.4868062 -54.4939190 654.2908549
24.7719996 -54.4935837 654.2007327
28.7616253 -54.4876754 652.9254317
29.0439762 -54.4826649 652.7794003
29.3307919 -54.4861034 652.7346373
29.6191685 -54.4923693 652.7237296
29.9081169 -54.4995926 652.7242661
30.1969573 -54.5065328 652.7213454
30.4873567 -54.5161441 652.7504921
30.7786465 -54.5272119 652.7969837
31.0687143 -54.5359626 652.8157592
31.3535370 -54.5354560 652.7236700
31.6260345 -54.5137636 652.3780227
31.9044292 -54.5025356 652.1577239
32.1878940 -54.5001477 652.0432234
32.4708521 -54.4969738 651.9193053
32.7499732 -54.4875190 651.7203450
35.3378057 -54.5274504 651.4245272
35.6230512 -54.5281880 651.3473392
35.9093733 -54.5305572 651.2897611
36.1954384 -54.5325503 651.2276530
36.4820063 -54.5352884 651.1744261
36.7654823 -54.5334183 651.0662436
37.0520242 -54.5361340 651.0127783
37.3388939 -54.5392968 650.9645581
37.6269035 -54.5441061 650.9360671
37.9140638 -54.5476489 650.8924961
38.1997302 -54.5490198 650.8229375
38.4796336 -54.5422435 650.6562233
38.7624949 -54.5397475 650.5405903
39.0499048 -54.5436777 650.5016685
39.3363237 -54.5462035 650.4458785
39.6203771 -54.5454621 650.3511667
39.9061404 -54.5470938 650.2847672
40.1903987 -54.5466878 650.1941681
40.4775478 -54.5502082 650.1501799
40.7682396 -54.5584410 650.1624584
41.0539173 -54.5599386 650.0945687
41.3383320 -54.5597672 650.0066519
41.6258201 -54.5636453 649.9668956
41.9134945 -54.5677505 649.9300003
42.1937704 -54.5622446 649.7786045
42.4760357 -54.5594022 649.6589780
42.7632369 -54.5629188 649.6149898
43.0529341 -54.5695722 649.6083736
43.3415808 -54.5748472 649.5853662
43.6274819 -54.5766428 649.5209336
43.9103954 -54.5747317 649.4123340
44.1958942 -54.5760393 649.3421197
44.4840938 -54.5806959 649.3117213
44.7725952 -54.5856729 649.2850780
45.0520255 -54.5796156 649.1273046
45.3427732 -54.5873046 649.1328478
45.6287228 -54.5891561 649.0691304
45.9160283 -54.5926318 649.0246654
46.2006181 -54.5928888 648.9418745
46.4853756 -54.5933358 648.8614678
46.7726924 -54.5968115 648.8169432
47.0543988 -54.5937456 648.6946940
47.3401882 -54.5954593 648.6292481
47.6258732 -54.5970388 648.5623121
47.9095690 -54.5963608 648.4684944
48.2006446 -54.6040870 648.4745145
48.4934039 -54.6136238 648.5019922
48.7858467 -54.6227321 648.5243440
49.6350639 -54.6186045 648.2180357
49.9239080 -54.6236150 648.1917500
49.9728769 -50.3765903 596.6086388
50.2336212 -50.3754392 596.5160131
50.4998527 -50.3797866 596.4884758
50.7660620 -50.3840894 596.4603424
51.0334633 -50.3895432 596.4458585
51.2996688 -50.3937826 596.4170694
51.5649691 -50.3971018 596.3773727
51.8283322 -50.3985398 596.3153839
52.0921573 -50.4004247 596.2585807
52.3536578 -50.4000597 596.1753130
52.6176877 -50.4021421 596.1209536
52.8842397 -50.4066236 596.0949659
53.1487390 -50.4091382 596.0457325
-49.3547134 -49.3910238 617.8810596
-49.0884557 -49.3897907 617.7855134
-48.8239825 -49.3903346 617.7122593
-48.5602990 -49.3916720 617.6489592
-48.2965931 -49.3929945 617.5853610
-48.0313301 -49.3927039 617.5017953
-47.7666445 -49.3929833 617.4251437
-47.5023910 -49.3936911 617.3539758
-47.2371392 -49.3933596 617.2697544
-46.9748117 -49.3960567 617.2235012
-46.7137471 -49.4001172 617.1942353
-46.4506187 -49.4019911 617.1375513
-46.1874083 -49.4037978 617.0800924
-45.9242426 -49.4056605 617.0232892
-24.1100676 -53.7540093 663.5179520
-23.8238834 -53.7544191 663.4364724
-23.5375520 -53.7545271 663.3512974
-23.2517980 -53.7558645 663.2812619
-22.9685903 -53.7631065 663.2847786
-22.6834454 -53.7659600 663.2328629
-22.3981813 -53.7685268 663.1779671
-22.1128892 -53.7710823 663.1230712
-21.8278915 -53.7743494 663.0767584
-21.5429030 -53.7776798 663.0313396
-21.2576296 -53.7802987 662.9771590
-20.9724624 -53.7832342 662.9267931
-20.6874833 -53.7867285 662.8833413
-20.4023365 -53.7897684 662.8343463
-20.1168656 -53.7919812 662.7750993
-19.8316332 -53.7948571 662.7240777
-19.5470434 -53.7995882 662.6958251
-19.2628894 -53.8055263 662.6824141
-18.9783946 -53.8106784 662.6594067
-18.6940636 -53.8163520 662.6427770
-18.4100717 -53.8231656 662.6401544
-18.1263387 -53.8309179 662.6490355
-17.8426299 -53.8389646 662.6616120
-17.5576434 -53.8432337 662.6276374
-17.2714666 -53.8438857 662.5491381
-16.9843771 -53.8416170 662.4346375
-16.6976135 -53.8402162 662.3309851
-16.4110456 -53.8394079 662.2344851
-16.1250848 -53.8404807 662.1611714
-15.8395208 -53.8428612 662.1040106
-15.5541142 -53.8458452 662.0541215
-15.2684590 -53.8479947 661.9941592
-14.9832247 -53.8516566 661.9526744
-14.6975201 -53.8536236 661.8903875
-14.4117288 -53.8553298 661.8248224
-14.1258137 -53.8565367 661.7531776
-13.8401203 -53.8585372 661.6913080
-13.5538932 -53.8585074 661.6044641
-13.2682687 -53.8607538 661.5455747
-12.9830763 -53.8648963 661.5099907
-12.6982816 -53.8707413 661.4953876
-12.4140540 -53.8792498 661.5133286
-12.1275801 -53.8780950 661.4126563
-11.8384417 -53.8646728 661.1614823
-11.5553364 -53.8787134 661.2473130
-11.2707568 -53.8861677 661.2524390
-10.9844049 -53.8852140 661.1548066
-10.6974356 -53.8811684 661.0181332
-10.4118902 -53.8840815 660.9674692
-10.1261381 -53.8859963 660.9044671
-9.8400414 -53.8859144 660.8170867
-9.5546292 -53.8896769 660.7767344
-9.2696082 -53.8957417 660.7646346
-8.9844260 -53.9011545 660.7445478
-8.4138857 -53.9116301 660.7000828
-8.1272786 -53.9083518 660.5734825
-7.8407032 -53.9048649 660.4443789
-7.5551900 -53.9085045 660.4025364
-7.2695776 -53.9116226 660.3543162
-6.9832546 -53.9093204 660.2397561
-6.6973688 -53.9103076 660.1654291
-6.4116037 -53.9120957 660.1008177
-6.1253840 -53.9098829 659.9873900
-5.8397818 -53.9130308 659.9395275
-5.5544311 -53.9186485 659.9218845
-5.2687246 -53.9210923 659.8654389
-4.9831532 -53.9250411 659.8274112
-4.6972740 -53.9258681 659.7511172
-4.4116937 -53.9300106 659.7154140
-4.1260044 -53.9330840 659.6665382
