5.22807 -32.0685 647.572
5.7927 -32.0722 647.436
6.3574 -32.0764 647.311
6.92209 -32.0806 647.185
7.48678 -32.0847 647.059
8.05167 -32.0897 646.951
8.61673 -32.0953 646.853
9.18177 -32.1006 646.75
9.74655 -32.105 646.628
10.312 -32.1113 646.546
10.8782 -32.12 646.51
11.4441 -32.1269 646.439
12.0098 -32.1333 646.358
12.5764 -32.1419 646.322
13.1429 -32.1499 646.273
13.7098 -32.1584 646.234
14.2772 -32.1677 646.212
14.8456 -32.1787 646.223
15.982 -32.1988 646.206
16.5501 -32.208 646.181
17.1199 -32.2201 646.213
17.6895 -32.2313 646.229
18.8306 -32.2558 646.301
19.4012 -32.2676 646.326
19.9731 -32.2808 646.381
21.118 -32.3077 646.5
21.6912 -32.3216 646.566
22.2656 -32.3367 646.659
22.8404 -32.3519 646.752
23.4148 -32.3661 646.826
23.9909 -32.3819 646.933
24.5666 -32.3968 647.019
25.1439 -32.4133 647.138
25.7205 -32.4283 647.227
26.299 -32.4451 647.353
26.8778 -32.4619 647.477
27.4563 -32.4779 647.585
28.0369 -32.4957 647.729
28.6187 -32.5143 647.89
29.2 -32.5319 648.03
29.7802 -32.5478 648.137
30.3647 -32.5678 648.323
30.9482 -32.5863 648.48
31.5326 -32.6052 648.645
32.1199 -32.6264 648.857
32.7067 -32.6466 649.048
33.2928 -32.6656 649.213
33.8817 -32.6868 649.423
34.4705 -32.7074 649.62
35.06 -32.728 649.819
35.6488 -32.7475 649.995
36.2393 -32.7681 650.192
36.8305 -32.7888 650.391
37.4224 -32.8096 650.592
38.015 -32.8305 650.794
38.6076 -32.8509 650.988
39.1987 -32.8696 651.147
39.7918 -32.8896 651.331
40.3842 -32.9085 651.493
40.9757 -32.9264 651.633
41.5686 -32.9449 651.789
42.1617 -32.9632 651.939
42.7531 -32.9799 652.057
43.3442 -32.996 652.162
43.9341 -33.011 652.245
44.5228 -33.0247 652.304
45.1125 -33.0389 652.373
45.7046 -33.0547 652.471
46.3066 -33.0771 652.702
46.9209 -33.1079 653.097
47.5364 -33.1389 653.494
48.1528 -33.1698 653.891
144.07 -41.5014 786.918
144.719 -41.4889 786.422
-51.797 -34.895 739.191
-51.039 -34.815 737.258
-50.3336 -34.7693 736.05
-49.6559 -34.7416 735.224
-43.9326 -32.8444 693.945
-43.233 -32.7704 692.155
-42.4877 -32.6589 689.575
-41.8153 -32.601 688.129
-41.1666 -32.56 687.04
-40.5191 -32.5186 685.943
-39.8783 -32.4814 684.935
-39.2389 -32.444 683.923
-38.6053 -32.4102 682.988
-37.9731 -32.3764 682.054
-37.3407 -32.3412 681.091
-36.7164 -32.3119 680.252
-36.0925 -32.2818 679.398
-35.472 -32.2536 678.583
-34.8554 -32.228 677.823
-34.2376 -32.2002 677.018
-33.6245 -32.1758 676.284
-33.0132 -32.1521 675.566
-32.4017 -32.1271 674.822
-31.7918 -32.1028 674.092
-31.1806 -32.076 673.309
-30.5732 -32.0521 672.588
-29.9653 -32.0263 671.829
-29.3587 -32.0009 671.077
-28.7549 -31.9774 670.365
-28.153 -31.9548 669.674
-27.5494 -31.9293 668.92
-26.9507 -31.9082 668.26
-26.3536 -31.8878 667.616
-25.7574 -31.8674 666.973
-25.1608 -31.8456 666.298
-24.5681 -31.8274 665.701
-23.9765 -31.8096 665.112
-23.3868 -31.7933 664.554
-22.7981 -31.7775 664.006
-22.21 -31.7613 663.453
-21.6227 -31.7452 662.9
-21.0362 -31.7293 662.351
-20.4497 -31.7121 661.777
-19.866 -31.6984 661.274
-19.2827 -31.684 660.76
-18.7005 -31.6703 660.258
-18.1179 -31.6549 659.722
-17.5372 -31.6415 659.228
-16.9585 -31.6308 658.79
-16.3788 -31.617 658.288
-15.8011 -31.6061 657.845
-15.2229 -31.5927 657.353
-14.647 -31.583 656.936
-14.0704 -31.5707 656.465
-13.4957 -31.5613 656.057
-12.9219 -31.553 655.671
-12.3473 -31.5413 655.214
-11.7743 -31.5325 654.816
-11.202 -31.5242 654.43
-10.6305 -31.5171 654.07
-10.0601 -31.5119 653.749
-9.48927 -31.5044 653.379
-8.91932 -31.4984 653.041
-8.34997 -31.4932 652.72
-7.78095 -31.488 652.399
-7.21294 -31.4856 652.137
-6.64485 -31.4818 651.846
-6.07743 -31.4799 651.594
-5.51019 -31.4777 651.336
-4.94333 -31.4765 651.097
-4.37666 -31.4753 650.861
-3.81022 -31.4742 650.624
-3.24386 -31.472 650.367
-2.67792 -31.472 650.155
-2.1122 -31.473 649.963
-1.54667 -31.4754 649.801
-0.981198 -31.4773 649.628
-0.415817 -31.4796 649.463
0.149479 -31.4814 649.287
0.714746 -31.4852 649.153
1.27998 -31.4889 649.018
1.84516 -31.4918 648.866
2.41022 -31.494 648.699
2.97532 -31.4974 648.556
3.54027 -31.4997 648.393
4.10531 -31.5033 648.255
4.67026 -31.5065 648.109
5.23509 -31.5092 647.953
5.80021 -31.5138 647.835
6.36506 -31.517 647.688
6.93023 -31.5218 647.577
7.49518 -31.5256 647.443
8.06074 -31.532 647.362
8.62566 -31.5356 647.226
9.19096 -31.5407 647.118
9.75639 -31.5461 647.017
10.3222 -31.5526 646.938
10.8881 -31.5591 646.861
11.4543 -31.5663 646.796
12.0207 -31.5736 646.734
12.587 -31.5805 646.663
13.1544 -31.5897 646.64
13.7214 -31.5977 646.594
14.2894 -31.6074 646.58
14.8573 -31.6167 646.559
15.4255 -31.6263 646.544
15.994 -31.636 646.531
16.5625 -31.6454 646.51
17.1332 -31.6584 646.565
17.7028 -31.6691 646.572
18.2735 -31.6811 646.604
18.8443 -31.6928 646.633
19.9889 -31.72 646.763
20.5607 -31.732 646.797
21.132 -31.7429 646.807
22.2812 -31.7731 646.998
22.8563 -31.7879 647.088
24.0076 -31.8178 647.273
24.5835 -31.8324 647.358
25.1616 -31.8492 647.488
25.7388 -31.8644 647.585
26.3171 -31.8806 647.7
27.4751 -31.9128 647.932
28.056 -31.9305 648.078
28.6359 -31.9464 648.188
29.2193 -31.9658 648.369
30.3854 -32.0021 648.68
30.9707 -32.0217 648.865
31.5546 -32.0395 649.013
32.1415 -32.0598 649.211
32.7279 -32.0789 649.386
33.3147 -32.0981 649.561
34.4926 -32.1388 649.959
35.6723 -32.1792 650.348
36.8547 -32.2199 650.745
38.0386 -32.26 651.128
38.6307 -32.2795 651.307
39.2236 -32.2992 651.491
39.8169 -32.3188 651.674
40.4097 -32.3376 651.838
41.0029 -32.3562 652
41.5954 -32.374 652.145
42.1864 -32.3902 652.257
42.7776 -32.4063 652.367
43.9598 -32.4374 652.564
44.5481 -32.4505 652.614
45.1377 -32.4643 652.677
45.7283 -32.4785 652.75
46.3223 -32.4949 652.865
46.925 -32.5171 653.095
47.5346 -32.5435 653.413
48.1464 -32.5709 653.748
141.103 -40.7151 786.847
143.866 -40.7135 785.777
146.009 -40.7323 785.361
146.722 -40.7382 785.215
147.399 -40.7341 784.875
236.091 -45.7431 854.908
-50.4399 -34.1984 737.666
-49.7415 -34.158 736.555
-45.4495 -32.4609 699.27
-44.7408 -32.3869 697.447
-42.4876 -32.0558 689.638
-41.8229 -32.005 688.318
-41.1703 -31.9619 687.167
-40.5269 -31.9247 686.142
-39.8822 -31.8852 685.069
-39.2462 -31.8515 684.12
-38.6099 -31.8164 683.14
-37.9801 -31.7854 682.25
-37.3459 -31.7495 681.257
-36.7203 -31.7198 680.396
-36.0991 -31.6928 679.595
-35.4781 -31.665 678.775
-34.8592 -31.638 677.975
-34.2425 -31.612 677.194
-33.6301 -31.5888 676.476
-33.0192 -31.5663 675.771
-32.408 -31.5423 675.036
-31.7982 -31.5187 674.31
-31.1868 -31.4925 673.528
-30.5817 -31.4716 672.859
-29.9739 -31.4469 672.11
-29.3692 -31.4243 671.406
-28.7657 -31.4019 670.708
-28.1631 -31.3794 670.008
-27.5599 -31.3552 669.27
-26.9612 -31.3348 668.616
-26.3642 -31.3155 667.983
-25.7671 -31.295 667.327
-25.1719 -31.2756 666.695
-24.5789 -31.2579 666.098
-23.9876 -31.2414 665.527
-23.3967 -31.2244 664.948
-22.8075 -31.2086 664.393
-22.2189 -31.1927 663.836
-21.6309 -31.1764 663.272
-21.0439 -31.1605 662.716
-20.459 -31.1467 662.204
-19.875 -31.1334 661.703
-19.2912 -31.1191 661.182
-18.7092 -31.1068 660.703
-18.1262 -31.0918 660.167
-17.5446 -31.0779 659.656
-16.9652 -31.0668 659.202
-16.3857 -31.0545 658.725
-15.8064 -31.0413 658.229
-15.2288 -31.0303 657.779
-14.652 -31.0195 657.335
-14.0765 -31.0107 656.933
-13.5005 -30.9996 656.481
-12.9265 -30.9918 656.099
-12.3524 -30.9827 655.692
-11.7779 -30.9713 655.235
-11.2051 -30.9628 654.84
-10.6331 -30.9555 654.47
-10.0618 -30.9491 654.118
-9.49136 -30.9438 653.792
-8.92098 -30.9378 653.449
-8.35153 -30.9337 653.149
-7.78215 -30.9287 652.828
-7.21352 -30.9254 652.543
-6.64481 -30.9205 652.226
-6.07663 -30.9165 651.927
-5.50923 -30.9153 651.687
-4.94213 -30.9146 651.457
-4.37511 -30.9131 651.212
-3.80849 -30.9132 650.999
-3.24193 -30.9122 650.765
-2.67568 -30.9128 650.562
-2.10959 -30.9138 650.369
-1.5437 -30.9161 650.203
-0.97783 -30.9166 650
-0.412124 -30.9186 649.827
0.153503 -30.9218 649.68
0.719121 -30.9256 649.548
1.28465 -30.9283 649.389
1.85013 -30.9308 649.229
2.41566 -30.9349 649.1
2.98085 -30.9356 648.901
3.5463 -30.9397 648.773
4.11181 -30.9445 648.661
4.67692 -30.9463 648.485
5.24223 -30.9499 648.347
5.80738 -30.9528 648.194
6.37281 -30.9573 648.075
6.93799 -30.9606 647.931
7.50355 -30.9657 647.824
8.0691 -30.9707 647.714
8.63457 -30.9753 647.597
9.20049 -30.9813 647.51
9.76602 -30.9859 647.393
10.3326 -30.9935 647.339
11.464 -31.0033 647.116
12.0313 -31.0124 647.093
12.5978 -31.0188 647.012
13.165 -31.0267 646.964
13.733 -31.0363 646.95
14.3011 -31.0457 646.933
14.8696 -31.0553 646.92
16.007 -31.0746 646.896
16.5756 -31.0835 646.867
17.1465 -31.0962 646.918
17.7163 -31.1063 646.915
18.2873 -31.1184 646.953
18.8577 -31.1288 646.956
19.4297 -31.1415 647.006
20.0027 -31.1553 647.079
20.5757 -31.1685 647.141
21.148 -31.1804 647.174
21.722 -31.1942 647.246
22.2977 -31.2098 647.358
22.8721 -31.2232 647.421
23.447 -31.2368 647.49
24.0228 -31.2513 647.576
24.6004 -31.2673 647.695
25.1784 -31.2835 647.816
25.7566 -31.2994 647.932
26.3356 -31.3157 648.055
26.9141 -31.3309 648.157
27.4946 -31.348 648.296
28.0752 -31.3647 648.427
28.6567 -31.3818 648.566
29.2386 -31.399 648.707
29.8225 -31.4177 648.879
30.9904 -31.4537 649.195
31.5758 -31.4723 649.364
32.1618 -31.4911 649.538
32.7485 -31.5101 649.714
33.3358 -31.5292 649.893
33.926 -31.5504 650.115
34.5143 -31.5693 650.291
35.1042 -31.5892 650.486
35.6962 -31.6105 650.709
36.2875 -31.6307 650.909
37.4712 -31.6705 651.297
38.6544 -31.708 651.638
39.2482 -31.7278 651.831
39.8422 -31.7475 652.02
40.4359 -31.7665 652.194
41.6206 -31.8012 652.474
42.212 -31.8172 652.588
42.8022 -31.8322 652.679
43.3934 -31.8475 652.777
43.9835 -31.8618 652.855
45.1606 -31.8874 652.948
45.7501 -31.9006 653.001
46.3391 -31.9132 653.043
46.9296 -31.9266 653.102
47.5282 -31.9452 653.267
146.595 -39.9743 784.506
147.331 -39.9866 784.486
148.023 -39.9869 784.229
235.246 -44.9178 854.85
235.796 -44.8785 853.815
-52.528 -34.0779 749.745
-49.8376 -33.5792 738.04
-44.6798 -31.7338 696.559
-43.1692 -31.5133 691.26
-42.4939 -31.4574 689.806
-41.8304 -31.4086 688.508
-41.1767 -31.3657 687.341
-40.5337 -31.3298 686.325
-39.8912 -31.2929 685.291
-39.2519 -31.2575 684.288
-38.6157 -31.2232 683.313
-37.9836 -31.1911 682.384
-37.3547 -31.1606 681.49
-36.7272 -31.13 680.597
-36.1031 -31.1013 679.744
-35.4841 -31.076 678.966
-34.8654 -31.0499 678.171
-34.2484 -31.0243 677.387
-33.6343 -31.0004 676.641
-33.0234 -30.9783 675.936
-32.4143 -30.9571 675.249
-31.8037 -30.9334 674.51
-31.1944 -30.91 673.776
-30.5887 -30.8892 673.1
-29.9825 -30.8669 672.391
-29.3784 -30.8457 671.706
-28.7761 -30.8255 671.043
-28.1726 -30.8028 670.328
-27.5707 -30.7808 669.626
-26.9722 -30.7616 668.988
-26.3765 -30.7445 668.394
-25.7789 -30.7243 667.733
-25.1838 -30.7059 667.113
-24.5904 -30.6886 666.516
-23.997 -30.6703 665.899
-23.4061 -30.654 665.324
-22.8158 -30.6377 664.749
-22.2268 -30.622 664.189
-21.6399 -30.6081 663.667
-21.0537 -30.5943 663.149
-20.4679 -30.58 662.62
-19.8832 -30.5664 662.105
-19.3003 -30.5547 661.631
-18.7161 -30.5397 661.087
-18.1343 -30.5274 660.603
-17.5524 -30.5141 660.095
-16.9706 -30.4996 659.564
-16.3913 -30.4886 659.107
-15.8119 -30.4761 658.619
-15.2339 -30.4652 658.164
-14.6573 -30.4561 657.751
-14.0807 -30.4459 657.311
-13.5046 -30.4354 656.868
-12.93 -30.4274 656.478
-12.3558 -30.4192 656.083
-11.7812 -30.4086 655.636
-11.2087 -30.4023 655.283
-10.6361 -30.3945 654.897
-10.0641 -30.387 654.52
-9.49324 -30.3819 654.192
-8.9227 -30.3767 653.862
-8.35262 -30.3718 653.541
-7.78297 -30.3672 653.226
-7.21417 -30.3648 652.957
-6.64534 -30.3612 652.662
-6.07644 -30.3557 652.327
-5.50864 -30.3542 652.08
-4.94139 -30.3547 651.875
-4.37403 -30.3536 651.635
-3.80702 -30.3536 651.418
-3.23999 -30.3518 651.164
-2.67329 -30.3513 650.936
-2.10684 -30.3517 650.729
-1.54065 -30.3544 650.571
-0.974521 -30.3571 650.413
-0.408442 -30.3591 650.239
0.157531 -30.3622 650.092
0.723442 -30.3637 649.907
1.28929 -30.3663 649.747
1.85514 -30.3699 649.607
2.42096 -30.3734 649.468
2.98663 -30.3758 649.303
3.55237 -30.3793 649.163
4.11793 -30.3819 649.003
4.68371 -30.3863 648.881
5.2491 -30.3883 648.708
5.81496 -30.3932 648.598
6.38041 -30.3962 648.446
6.94628 -30.4012 648.336
7.51185 -30.4049 648.2
8.0777 -30.4097 648.087
8.64352 -30.4143 647.971
9.21 -30.4211 647.9
9.7758 -30.4255 647.778
10.3418 -30.4305 647.669
10.9084 -30.4371 647.594
11.4749 -30.4431 647.507
12.0422 -30.4512 647.463
12.609 -30.4576 647.384
13.1769 -30.4662 647.354
13.7451 -30.4754 647.334
14.3133 -30.484 647.301
14.8814 -30.4923 647.263
15.4506 -30.5023 647.26
16.0204 -30.5132 647.275
16.5898 -30.5227 647.262
17.1598 -30.5331 647.266
17.7299 -30.5432 647.266
18.3013 -30.5552 647.304
18.8727 -30.5666 647.332
20.0169 -30.5906 647.409
20.5903 -30.604 647.476
21.1632 -30.6159 647.513
21.7368 -30.6287 647.568
22.3129 -30.6443 647.684
22.8891 -30.6595 647.788
23.4652 -30.6741 647.881
24.0414 -30.6884 647.967
24.6172 -30.7016 648.031
25.7737 -30.7328 648.26
26.353 -30.749 648.384
27.5136 -30.782 648.648
28.0943 -30.7982 648.773
28.6753 -30.8143 648.896
29.2584 -30.8321 649.056
29.8409 -30.8487 649.19
30.425 -30.8666 649.35
31.0103 -30.8852 649.526
31.5958 -30.9034 649.692
32.1831 -30.9229 649.886
32.7703 -30.9418 650.067
33.3578 -30.9604 650.241
33.9473 -30.9805 650.445
34.5375 -31.0006 650.651
35.1271 -31.0196 650.834
35.7181 -31.0395 651.033
36.3102 -31.0597 651.241
36.9024 -31.0796 651.442
37.494 -31.0986 651.622
38.0877 -31.1188 651.828
38.6794 -31.1368 651.989
39.2721 -31.1554 652.16
39.866 -31.1744 652.341
40.4602 -31.1933 652.518
41.0536 -31.2112 652.675
42.2365 -31.2429 652.903
42.8259 -31.2568 652.976
43.4164 -31.2712 653.061
44.0073 -31.2857 653.145
44.597 -31.2991 653.208
45.1854 -31.3113 653.245
45.7717 -31.322 653.249
46.9422 -31.3414 653.218
47.5308 -31.3531 653.245
147.157 -39.2117 783.533
147.777 -39.1931 782.899
148.464 -39.1925 782.624
234.997 -44.063 853.922
235.49 -44.0139 852.682
-52.5171 -33.416 749.65
-51.7733 -33.3558 748.05
-47.9287 -32.5081 728.066
-44.6054 -31.0731 695.462
-43.8733 -30.9822 693.197
-43.1754 -30.9133 691.424
-42.5019 -30.8598 689.999
-41.8401 -30.8135 688.733
-41.1878 -30.7727 687.592
-40.5401 -30.7341 686.5
-39.8989 -30.6992 685.492
-39.2584 -30.6637 684.47
-38.6228 -30.6308 683.507
-37.9919 -30.6006 682.605
-37.3603 -30.5686 681.664
-36.7347 -30.5405 680.81
-36.1108 -30.5127 679.964
-35.4882 -30.485 679.121
-34.8694 -30.4595 678.325
-34.2555 -30.4373 677.605
-33.6412 -30.4139 676.857
-33.0272 -30.3898 676.094
-32.4185 -30.3695 675.419
-31.809 -30.3477 674.707
-31.2003 -30.3255 673.989
-30.5959 -30.3066 673.344
-29.9901 -30.2854 672.649
-29.3869 -30.266 671.992
-28.7843 -30.246 671.325
-28.183 -30.2266 670.669
-27.5822 -30.2065 670.001
-26.9827 -30.187 669.343
-26.3857 -30.1692 668.726
-25.7877 -30.1493 668.062
-25.192 -30.131 667.433
-24.5999 -30.1161 666.88
-24.0069 -30.0991 666.281
-23.4153 -30.0829 665.7
-22.8241 -30.0661 665.105
-22.2354 -30.0515 664.562
-21.649 -30.0392 664.066
-21.063 -30.0265 663.564
-20.4763 -30.0119 663.02
-19.891 -29.9982 662.496
-19.3068 -29.9852 661.987
-18.7237 -29.9728 661.493
-18.1414 -29.9608 661.006
-17.559 -29.9474 660.491
-16.9784 -29.9361 660.019
-16.3978 -29.9236 659.524
-15.8191 -29.9135 659.081
-15.2401 -29.9019 658.605
-14.6623 -29.8912 658.149
-14.0854 -29.8813 657.712
-13.5093 -29.8721 657.29
-12.9335 -29.8623 656.854
-12.3593 -29.855 656.473
-11.7852 -29.8468 656.075
-11.2118 -29.8393 655.69
-10.6388 -29.8317 655.303
-10.0668 -29.8256 654.951
-9.49529 -29.8197 654.603
-8.92435 -29.8146 654.27
-8.35382 -29.8095 653.941
-7.78393 -29.8056 653.636
-7.21457 -29.8024 653.347
-6.64533 -29.7987 653.047
-6.07636 -29.7946 652.74
-5.50788 -29.7915 652.454
-4.93996 -29.7901 652.204
-4.37248 -29.7903 651.99
-3.80513 -29.7901 651.768
-3.23801 -29.7904 651.556
-2.67108 -29.791 651.352
-2.10423 -29.7912 651.137
-1.5376 -29.7921 650.94
-0.97115 -29.7949 650.783
-0.404747 -29.7968 650.606
0.161569 -29.7996 650.449
0.727813 -29.8021 650.287
1.294 -29.8048 650.129
1.86014 -29.8077 649.973
2.42634 -29.8122 649.853
2.99236 -29.8146 649.69
3.55835 -29.8175 649.535
4.12433 -29.8208 649.389
5.25627 -29.8277 649.105
5.8223 -29.8318 648.977
6.38827 -29.8356 648.842
6.95403 -29.8386 648.689
7.52027 -29.8438 648.585
8.08635 -29.8482 648.463
9.21908 -29.8588 648.259
9.78545 -29.864 648.155
10.3517 -29.8688 648.042
10.9183 -29.8745 647.948
11.4854 -29.8812 647.876
12.0532 -29.8895 647.839
12.6203 -29.8957 647.757
13.1885 -29.9045 647.732
13.7564 -29.912 647.677
14.3252 -29.9213 647.661
14.8937 -29.9295 647.621
15.463 -29.9392 647.614
16.033 -29.9497 647.624
16.603 -29.9597 647.623
17.173 -29.9693 647.613
17.7434 -29.9794 647.615
18.8864 -30.0018 647.665
19.4582 -30.0129 647.687
20.0315 -30.0259 647.75
20.6051 -30.039 647.815
21.1789 -30.0518 647.873
21.7528 -30.0642 647.925
22.328 -30.078 648.005
22.9043 -30.0928 648.105
23.4802 -30.1066 648.185
24.0574 -30.1216 648.29
24.6349 -30.1363 648.391
25.2133 -30.1518 648.507
25.791 -30.1659 648.592
26.3704 -30.1816 648.712
26.9518 -30.1991 648.87
27.5335 -30.2162 649.021
28.1143 -30.232 649.142
28.6946 -30.2468 649.24
29.8608 -30.2808 649.536
31.0288 -30.3147 649.826
31.6162 -30.3343 650.028
32.2029 -30.3526 650.202
32.7912 -30.372 650.399
33.3803 -30.3916 650.601
33.9696 -30.4108 650.793
35.1492 -30.4488 651.168
36.3328 -30.4882 651.573
37.5177 -30.5268 651.962
38.7042 -30.565 652.338
39.2991 -30.5846 652.539
39.8916 -30.6021 652.692
40.4845 -30.6195 652.844
41.076 -30.6354 652.965
41.6679 -30.6514 653.086
42.2628 -30.6692 653.245
42.8524 -30.6829 653.317
43.4415 -30.696 653.376
44.0315 -30.7095 653.444
44.6204 -30.7219 653.489
45.2066 -30.7323 653.492
45.7912 -30.7416 653.468
46.375 -30.7501 653.431
46.9559 -30.7567 653.351
47.5385 -30.7643 653.294
132.864 -38.3476 786.024
147.604 -38.4208 781.955
148.325 -38.4293 781.863
149.006 -38.4276 781.565
233.451 -43.2493 854.351
234.037 -43.2181 853.444
234.601 -43.1829 852.46
235.216 -43.1575 851.668
-68.872 -36.2179 833.009
-66.0033 -36.2287 832.138
-52.5031 -32.7525 749.513
-51.7721 -32.7015 748.094
-47.9099 -31.8591 727.843
-44.6086 -30.4671 695.573
-43.8869 -30.3854 693.475
-43.1911 -30.3195 691.739
-42.5146 -30.2654 690.271
-41.8515 -30.2192 688.985
-41.1958 -30.177 687.792
-40.5481 -30.1394 686.703
-39.9035 -30.1029 685.64
-39.2671 -30.0713 684.691
-38.629 -30.0374 683.688
-37.997 -30.007 682.767
-37.368 -29.978 681.876
-36.7397 -29.9484 680.975
-36.118 -29.9233 680.174
-35.4956 -29.8965 679.336
-34.8757 -29.8708 678.524
-34.2601 -29.8478 677.774
-33.6468 -29.826 677.049
-33.0339 -29.8036 676.313
-32.423 -29.782 675.595
-31.8145 -29.7617 674.907
-31.2062 -29.7405 674.201
-30.6014 -29.722 673.553
-29.9966 -29.7024 672.882
-29.3936 -29.6838 672.234
-28.7904 -29.664 671.559
-28.1893 -29.6453 670.911
-27.5906 -29.6283 670.3
-26.9913 -29.6098 669.655
-26.3942 -29.5926 669.042
-25.7972 -29.5747 668.411
-25.2021 -29.5579 667.806
-24.6099 -29.5435 667.257
-24.017 -29.5275 666.67
-23.4249 -29.5115 666.084
-22.8343 -29.4962 665.515
-22.245 -29.4818 664.964
-21.6575 -29.4688 664.449
-21.0701 -29.455 663.913
-20.4848 -29.4431 663.42
-19.8983 -29.4285 662.869
-19.3145 -29.4169 662.384
-18.7314 -29.4055 661.904
-18.1477 -29.392 661.376
-17.5655 -29.38 660.884
-16.9843 -29.3684 660.401
-16.4041 -29.3577 659.936
-15.8246 -29.3471 659.476
-15.2462 -29.3374 659.036
-14.6674 -29.3259 658.555
-14.0904 -29.3168 658.129
-13.5141 -29.3082 657.713
-12.9386 -29.3002 657.313
-12.3634 -29.2918 656.902
-11.7891 -29.2843 656.513
-11.216 -29.2786 656.164
-10.6439 -29.2747 655.855
-10.0723 -29.2714 655.559
-9.50126 -29.269 655.285
-8.93072 -29.2672 655.025
-8.35959 -29.2626 654.7
-7.7889 -29.2583 654.382
-7.21828 -29.2528 654.04
-6.64727 -29.244 653.622
-6.07718 -29.2372 653.25
-5.50787 -29.2322 652.917
-4.93918 -29.2288 652.62
-4.37134 -29.2289 652.404
-3.80349 -29.2278 652.159
-3.23599 -29.2278 651.94
-2.66863 -29.2278 651.718
-2.1014 -29.2269 651.479
-1.53453 -29.229 651.306
-0.96773 -29.2311 651.133
-0.401035 -29.2342 650.982
0.165598 -29.2375 650.834
0.732145 -29.2385 650.639
1.29868 -29.2421 650.498
1.86518 -29.2457 650.359
2.43155 -29.2481 650.192
2.99798 -29.2517 650.053
3.56434 -29.2551 649.908
4.13067 -29.2584 649.763
4.69689 -29.2614 649.61
5.26301 -29.264 649.448
5.82961 -29.2695 649.351
6.39573 -29.2724 649.197
6.96207 -29.2766 649.07
7.52841 -29.2808 648.944
8.09508 -29.2863 648.846
8.6616 -29.291 648.731
9.22832 -29.2963 648.63
9.79521 -29.3021 648.538
10.3618 -29.3069 648.425
10.9293 -29.3139 648.362
11.4965 -29.3201 648.28
12.0636 -29.3258 648.187
12.6312 -29.3324 648.113
13.7685 -29.3497 648.058
14.337 -29.3576 648.012
14.906 -29.3662 647.983
15.4753 -29.3751 647.961
16.0451 -29.3845 647.95
17.1867 -29.4058 647.98
17.7573 -29.4154 647.974
18.3285 -29.4259 647.984
18.9006 -29.4372 648.014
20.0472 -29.4623 648.129
20.6206 -29.4743 648.175
21.1937 -29.4856 648.203
21.7689 -29.4991 648.282
22.3436 -29.5118 648.34
22.9194 -29.5254 648.42
24.0736 -29.5543 648.617
24.6515 -29.5691 648.722
25.809 -29.5992 648.943
26.3893 -29.6154 649.078
26.9693 -29.6307 649.193
27.5503 -29.6466 649.321
28.1327 -29.6635 649.472
28.7153 -29.6801 649.616
29.2981 -29.6965 649.755
29.8817 -29.7132 649.902
30.4659 -29.73 650.049
31.0511 -29.7474 650.208
31.6368 -29.7647 650.366
32.225 -29.7839 650.565
32.8118 -29.8013 650.726
33.4012 -29.8206 650.928
33.9917 -29.8404 651.138
34.5816 -29.8591 651.327
35.1732 -29.8788 651.535
35.7648 -29.898 651.734
36.3571 -29.9173 651.935
36.9515 -29.938 652.163
38.1347 -29.9732 652.489
39.3241 -30.0117 652.885
39.9175 -30.0294 653.049
40.5109 -30.0466 653.202
41.1031 -30.0627 653.329
41.6928 -30.0766 653.41
42.2848 -30.0919 653.521
42.876 -30.1063 653.614
43.4653 -30.1192 653.671
44.6412 -30.1424 653.732
45.2257 -30.1515 653.708
45.8098 -30.1601 653.674
46.3918 -30.1674 653.609
46.972 -30.1733 653.517
47.5499 -30.1778 653.392
133.388 -37.5736 784.752
148.158 -37.6603 780.954
148.918 -37.679 781.075
149.621 -37.6832 780.896
232.522 -42.4101 853.979
233.033 -42.366 852.798
233.64 -42.3395 851.972
234.202 -42.305 850.986
234.939 -42.3025 850.645
-70.2583 -35.4615 832.924
-69.5464 -35.4669 832.769
-68.837 -35.4736 832.643
-64.5035 -35.472 830.912
-62.4052 -35.5084 830.917
-52.5128 -32.1035 749.712
-49.8175 -31.6312 737.93
-44.6314 -29.8741 695.991
-43.9059 -29.7918 693.838
-43.2085 -29.7264 692.08
-42.5289 -29.6715 690.567
-41.8621 -29.6239 689.225
-41.2066 -29.583 688.039
-40.5561 -29.5443 686.906
-39.9109 -29.5082 685.834
-39.2728 -29.4763 684.859
-38.6365 -29.4446 683.889
-38.0046 -29.4152 682.975
-37.3767 -29.3878 682.107
-36.7461 -29.3573 681.168
-36.1215 -29.3304 680.313
-35.5001 -29.3052 679.497
-34.8821 -29.2819 678.726
-34.2652 -29.2585 677.954
-33.6507 -29.2362 677.207
-33.0383 -29.2149 676.483
-32.428 -29.1945 675.781
-31.8205 -29.1758 675.117
-31.214 -29.1571 674.456
-30.6074 -29.1374 673.771
-30.0035 -29.1194 673.127
-29.4002 -29.1011 672.474
-28.7979 -29.0829 671.825
-28.1973 -29.0655 671.195
-27.598 -29.0485 670.575
-26.999 -29.0311 669.944
-26.4029 -29.0157 669.362
-25.8076 -29.0004 668.782
-25.2112 -28.9829 668.15
-24.6166 -28.9666 667.547
-24.0251 -28.9528 667.003
-23.4341 -28.9389 666.456
-22.8435 -28.9246 665.9
-22.2521 -28.9082 665.295
-21.6658 -28.8975 664.823
-21.0792 -28.8855 664.322
-20.4916 -28.8713 663.769
-19.9064 -28.8593 663.268
-19.3222 -28.848 662.784
-18.7378 -28.8354 662.267
-18.1548 -28.8239 661.78
-17.5718 -28.8114 661.266
-16.9903 -28.8003 660.788
-16.41 -28.7902 660.33
-15.8301 -28.7798 659.868
-15.2508 -28.7694 659.404
-14.6727 -28.7602 658.969
-14.0951 -28.7509 658.532
-13.518 -28.7415 658.093
-12.9431 -28.7359 657.74
-12.369 -28.7311 657.407
-11.7968 -28.7299 657.155
-11.2261 -28.7322 656.985
-10.6565 -28.7373 656.878
-10.0865 -28.7412 656.742
-9.51601 -28.7435 656.572
-8.94439 -28.742 656.316
-8.37245 -28.7387 656.015
-7.8007 -28.7348 655.704
-7.22932 -28.7312 655.397
-6.65756 -28.7244 655.021
-6.08559 -28.7148 654.577
-5.51389 -28.7035 654.097
-4.94248 -28.6904 653.576
-4.37185 -28.6778 653.067
-3.80238 -28.669 652.644
-3.23404 -28.6654 652.34
-2.66619 -28.6636 652.078
-2.09867 -28.6635 651.853
-1.53142 -28.6648 651.661
-0.964356 -28.6679 651.508
-0.397308 -28.6695 651.323
0.169625 -28.6723 651.166
0.736516 -28.6755 651.016
1.30336 -28.6789 650.872
1.87012 -28.6813 650.704
2.4369 -28.6848 650.562
3.00365 -28.6885 650.425
3.57023 -28.691 650.259
4.13696 -28.6951 650.131
4.70343 -28.6977 649.968
5.27002 -28.7012 649.826
5.83675 -28.7056 649.704
6.40339 -28.7096 649.573
6.97016 -28.7142 649.456
7.53731 -28.7201 649.369
8.10364 -28.723 649.213
8.67043 -28.7276 649.095
9.23724 -28.7322 648.977
9.80431 -28.7375 648.878
10.3713 -28.7427 648.772
10.9392 -28.7498 648.713
11.5063 -28.7548 648.604
12.0744 -28.7624 648.553
12.6429 -28.7704 648.512
13.2108 -28.7767 648.434
13.7798 -28.7851 648.401
14.3498 -28.7953 648.411
14.9189 -28.8033 648.37
15.4889 -28.8127 648.36
16.0586 -28.8213 648.333
16.6284 -28.8298 648.302
17.1995 -28.8401 648.312
17.7708 -28.8503 648.321
18.3423 -28.8605 648.33
18.9151 -28.8723 648.373
19.4879 -28.8837 648.408
20.0615 -28.8959 648.461
20.6356 -28.9083 648.519
21.2099 -28.9207 648.575
21.7846 -28.933 648.629
22.3606 -28.9467 648.716
22.937 -28.9605 648.802
23.5128 -28.973 648.861
24.0905 -28.9875 648.965
24.6685 -29.0017 649.061
25.2478 -29.0171 649.184
25.8268 -29.0317 649.29
26.4073 -29.0474 649.419
26.9889 -29.0639 649.566
27.57 -29.0794 649.691
28.1515 -29.0947 649.812
28.7343 -29.111 649.954
29.318 -29.1278 650.107
29.9029 -29.1452 650.273
31.0728 -29.1787 650.576
31.6585 -29.1956 650.73
32.2458 -29.2133 650.903
32.8349 -29.2323 651.103
33.4234 -29.2501 651.279
34.015 -29.2703 651.506
34.6062 -29.2896 651.712
35.1953 -29.3067 651.87
35.7875 -29.3258 652.073
36.3797 -29.3446 652.267
36.9736 -29.3642 652.48
37.5677 -29.3835 652.686
38.754 -29.4194 653.038
39.3496 -29.4386 653.24
39.9413 -29.4545 653.37
40.534 -29.4708 653.508
41.7141 -29.4987 653.679
42.3056 -29.5132 653.779
42.8971 -29.5275 653.872
43.4856 -29.5395 653.914
44.0751 -29.5519 653.966
44.6627 -29.5629 653.986
45.2458 -29.5708 653.937
45.8267 -29.5773 653.855
46.4069 -29.5832 653.763
46.9856 -29.5881 653.648
47.5658 -29.5939 653.554
48.1377 -29.5946 653.346
148.767 -36.9156 780.253
150.085 -36.9027 779.444
150.808 -36.9121 779.375
231.363 -41.5307 852.758
232.118 -41.5312 852.474
232.701 -41.501 851.561
233.317 -41.4769 850.773
233.889 -41.4451 849.826
234.614 -41.4408 849.444
-72.2453 -34.6478 831.732
-69.4383 -34.6869 831.53
-68.0006 -34.6896 831.024
-67.3076 -34.7041 831.087
-65.8244 -34.6825 830.001
-52.5417 -31.4658 750.186
-50.393 -30.946 737.288
-49.7437 -30.9403 736.9
-44.6566 -29.2819 696.446
-43.9226 -29.1961 694.166
-43.224 -29.1315 692.393
-42.5404 -29.0752 690.818
-41.8735 -29.0288 689.479
-41.218 -28.9889 688.295
-40.5648 -28.9493 687.119
-39.9171 -28.9124 686.009
-39.2799 -28.882 685.051
-38.6425 -28.8503 684.065
-38.0107 -28.8218 683.154
-37.3803 -28.7933 682.245
-36.7523 -28.7656 681.356
-36.1271 -28.739 680.493
-35.5062 -28.715 679.69
-34.8862 -28.6907 678.882
-34.2697 -28.6684 678.121
-33.656 -28.6474 677.394
-33.0461 -28.6289 676.723
-32.4314 -28.6053 675.934
-31.8232 -28.5865 675.257
-31.2189 -28.5704 674.646
-30.6148 -28.5537 674.02
-30.0101 -28.5356 673.362
-29.4063 -28.5176 672.705
-28.8051 -28.501 672.084
-28.2039 -28.4837 671.446
-27.6041 -28.4669 670.819
-27.007 -28.4521 670.239
-26.4092 -28.4356 669.621
-25.8146 -28.4217 669.065
-25.2181 -28.4048 668.438
-24.6246 -28.3904 667.869
-24.0318 -28.3759 667.299
-23.4428 -28.365 666.814
-22.8508 -28.3498 666.227
-22.2619 -28.3373 665.704
-21.6733 -28.3244 665.174
-21.0858 -28.312 664.653
-20.5005 -28.3016 664.182
-19.9147 -28.2898 663.676
-19.3287 -28.2767 663.142
-18.7451 -28.266 662.663
-18.1611 -28.2539 662.153
-17.5787 -28.2431 661.672
-16.995 -28.2293 661.122
-16.4152 -28.2209 660.699
-15.8344 -28.2098 660.211
-15.2558 -28.2015 659.792
-14.6772 -28.1923 659.348
-14.0998 -28.1843 658.935
-13.5242 -28.179 658.585
-12.9503 -28.1767 658.304
-12.3798 -28.1813 658.186
-11.8107 -28.1894 658.148
-11.2403 -28.1948 658.049
-10.6679 -28.1947 657.82
-10.0942 -28.1907 657.502
-9.52065 -28.1859 657.165
-8.94687 -28.1793 656.785
-8.37347 -28.1726 656.403
-7.80109 -28.1679 656.067
-7.22961 -28.1652 655.779
-6.65883 -28.1643 655.533
-6.08839 -28.164 655.3
-5.51817 -28.1638 655.072
-4.94808 -28.1634 654.838
-4.3777 -28.1598 654.528
-3.80652 -28.148 654.03
-3.23574 -28.1338 653.475
-2.66552 -28.1179 652.88
-2.09651 -28.1071 652.406
-1.52847 -28.1029 652.084
-0.960937 -28.1029 651.861
-0.393595 -28.1052 651.689
0.173659 -28.1077 651.523
0.74085 -28.1104 651.362
1.30799 -28.1135 651.209
1.8751 -28.1168 651.062
2.44213 -28.1198 650.907
3.0092 -28.1236 650.772
3.57625 -28.1274 650.636
4.1431 -28.1301 650.474
4.71002 -28.1335 650.331
5.27721 -28.1385 650.223
5.84419 -28.1425 650.091
6.41145 -28.1477 649.987
6.97954 -28.1562 649.959
7.54796 -28.1652 649.945
8.114 -28.1654 649.725
8.67927 -28.1635 649.459
9.24652 -28.1685 649.351
9.81397 -28.174 649.253
10.3812 -28.1786 649.137
10.9498 -28.1869 649.103
11.5172 -28.192 648.998
12.085 -28.1976 648.905
12.6539 -28.2057 648.868
13.2228 -28.2135 648.824
13.7915 -28.2206 648.764
14.3612 -28.2296 648.747
14.931 -28.2382 648.722
15.5009 -28.2469 648.698
16.071 -28.2555 648.671
17.2132 -28.2752 648.678
17.7846 -28.2849 648.678
18.3567 -28.2955 648.697
18.93 -28.3075 648.749
19.5031 -28.3186 648.781
20.0765 -28.3299 648.816
20.6504 -28.3414 648.857
21.225 -28.3537 648.913
21.8002 -28.3661 648.975
22.3764 -28.3794 649.056
22.9536 -28.3937 649.158
23.5303 -28.4067 649.233
24.1087 -28.4213 649.343
24.6867 -28.4352 649.436
25.266 -28.4499 649.549
25.8447 -28.4635 649.636
26.4257 -28.4793 649.772
27.007 -28.4949 649.904
27.5888 -28.5106 650.038
28.1718 -28.527 650.188
28.7537 -28.5418 650.302
29.338 -28.5586 650.459
29.9228 -28.5753 650.617
30.5079 -28.5919 650.771
31.0937 -28.6087 650.929
31.6799 -28.6254 651.085
32.268 -28.6434 651.269
32.857 -28.6616 651.46
33.4476 -28.6809 651.672
34.039 -28.7002 651.887
34.6294 -28.7182 652.071
35.2193 -28.7355 652.238
35.8096 -28.7525 652.4
36.404 -28.7725 652.629
36.9971 -28.7909 652.821
37.5907 -28.8093 653.014
38.1848 -28.8277 653.205
38.7798 -28.8463 653.402
39.3725 -28.8629 653.552
39.9638 -28.878 653.67
41.1471 -28.908 653.896
41.7376 -28.9217 653.983
42.9181 -28.9481 654.128
43.5057 -28.9592 654.153
44.0933 -28.9702 654.175
44.6789 -28.9796 654.161
45.2603 -28.9862 654.086
45.8428 -28.9935 654.025
46.4214 -28.9983 653.907
47.5807 -29.0091 653.7
48.1609 -29.0148 653.604
150.652 -36.1499 778.54
151.299 -36.1413 778.083
230.511 -40.7075 852.661
231.052 -40.6705 851.589
231.651 -40.6439 850.735
232.401 -40.6438 850.438
233.007 -40.6188 849.619
233.724 -40.6132 849.204
234.481 -40.6146 848.938
-71.451 -33.8888 830.657
-52.5862 -30.8364 750.883
-50.3528 -30.2774 736.762
-49.7088 -30.2749 736.446
-44.6822 -28.6893 696.909
-43.9493 -28.6062 694.651
-43.2411 -28.537 692.731
-42.5564 -28.4815 691.143
-41.8868 -28.4345 689.763
-41.226 -28.392 688.495
-40.5734 -28.3539 687.333
-39.927 -28.3189 686.247
-39.286 -28.2866 685.227
-38.6482 -28.2556 684.237
-38.0143 -28.2262 683.291
-37.3868 -28.2007 682.436
-36.7576 -28.1729 681.527
-36.1338 -28.1482 680.694
-35.5128 -28.1248 679.893
-34.8914 -28.1001 679.06
-34.2732 -28.077 678.268
-33.6594 -28.0567 677.542
-33.0503 -28.0394 676.89
-32.4382 -28.0188 676.157
-31.8282 -27.999 675.447
-31.224 -27.9836 674.841
-30.6195 -27.9671 674.21
-30.0151 -27.95 673.563
-29.4121 -27.9333 672.927
-28.8118 -27.9183 672.333
-28.2107 -27.9017 671.701
-27.6117 -27.8863 671.099
-27.0144 -27.872 670.521
-26.4168 -27.8564 669.913
-25.8209 -27.8418 669.33
-25.2269 -27.8284 668.776
-24.6325 -27.8136 668.19
-24.0393 -27.7994 667.616
-23.4484 -27.7869 667.085
-22.8578 -27.774 666.545
-22.2689 -27.7623 666.032
-21.6795 -27.7491 665.485
-21.0934 -27.7391 665.015
-20.5074 -27.7287 664.534
-19.9204 -27.7159 663.997
-19.3358 -27.7056 663.52
-18.7505 -27.6932 662.995
-18.1676 -27.6835 662.533
-17.5853 -27.6738 662.07
-17.0011 -27.66 661.51
-16.4205 -27.6511 661.068
-15.8403 -27.6418 660.617
-15.2605 -27.6323 660.161
-14.6822 -27.6246 659.748
-14.1052 -27.6183 659.37
-13.5324 -27.6198 659.178
-12.9631 -27.6284 659.153
-12.3924 -27.6344 659.069
-11.8191 -27.6343 658.836
-11.2436 -27.6283 658.466
-10.6661 -27.6163 657.952
-10.0895 -27.6048 657.45
-9.51402 -27.5945 656.977
-8.93932 -27.5849 656.521
-8.3656 -27.5765 656.093
-7.79348 -27.572 655.757
-7.22144 -27.5663 655.396
-6.65097 -27.5654 655.147
-6.08106 -27.5661 654.936
-5.51169 -27.5687 654.771
-4.37457 -27.5828 654.651
-3.80558 -27.5879 654.546
-3.23649 -27.5924 654.424
-2.6669 -27.5919 654.186
-2.09648 -27.5777 653.623
-1.52657 -27.5591 652.955
-0.957819 -27.5464 652.426
-0.389906 -27.543 652.12
0.1777 -27.5416 651.862
0.745203 -27.5448 651.711
1.31266 -27.5482 651.565
1.87997 -27.5501 651.383
2.44739 -27.5542 651.254
3.0147 -27.5574 651.105
3.582 -27.561 650.963
4.14945 -27.5657 650.849
4.71689 -27.5703 650.731
5.28407 -27.5735 650.581
5.85237 -27.5822 650.561
6.42123 -27.5925 650.577
6.99082 -27.6047 650.64
7.55884 -27.61 650.539
8.12301 -27.6022 650.128
8.68832 -27.5995 649.84
9.25554 -27.6034 649.705
9.82399 -27.6108 649.653
10.3919 -27.6165 649.561
10.96 -27.6224 649.477
11.5276 -27.6271 649.36
12.0961 -27.6337 649.29
12.665 -27.6408 649.232
13.2336 -27.6473 649.16
13.8029 -27.655 649.114
14.373 -27.664 649.101
14.9431 -27.6724 649.073
15.5134 -27.6811 649.05
16.0842 -27.6904 649.043
16.6553 -27.6998 649.037
17.2264 -27.7088 649.024
17.7981 -27.7185 649.025
18.3706 -27.729 649.045
18.9439 -27.7404 649.086
19.5171 -27.7512 649.113
20.0914 -27.7632 649.168
20.6651 -27.7739 649.194
21.2409 -27.787 649.275
21.8164 -27.7994 649.338
22.3931 -27.8127 649.424
22.9718 -27.8281 649.558
23.5491 -27.8413 649.64
24.7054 -27.8684 649.819
25.285 -27.8829 649.933
26.4444 -27.9109 650.132
27.0263 -27.9266 650.272
28.1901 -27.9564 650.514
28.7741 -27.9728 650.67
29.3568 -27.9876 650.786
29.9422 -28.0044 650.951
30.528 -28.021 651.112
31.1146 -28.038 651.28
31.7014 -28.0548 651.443
32.2886 -28.0714 651.602
32.8794 -28.0906 651.822
33.4682 -28.1078 651.992
34.0596 -28.1266 652.203
34.6521 -28.1458 652.421
35.2422 -28.1626 652.584
35.8355 -28.1816 652.797
36.4281 -28.1995 652.985
37.0202 -28.2168 653.157
37.6147 -28.2353 653.359
38.2082 -28.2527 653.534
38.8014 -28.2695 653.696
39.3945 -28.2859 653.848
39.9855 -28.3005 653.957
40.5767 -28.3149 654.063
41.168 -28.3291 654.164
42.3479 -28.3549 654.303
42.9363 -28.3665 654.342
43.5251 -28.378 654.382
44.114 -28.3895 654.419
44.6961 -28.3965 654.353
45.2775 -28.403 654.274
45.8569 -28.4082 654.167
46.435 -28.4126 654.04
47.0146 -28.4179 653.935
47.5953 -28.4238 653.843
48.1768 -28.4302 653.762
48.7589 -28.4369 653.688
151.019 -35.3521 776.614
230.179 -39.8449 851.41
230.631 -39.7935 850.012
231.355 -39.7893 849.625
232.043 -39.779 849.107
232.781 -39.7772 848.77
233.545 -39.78 848.531
234.312 -39.7834 848.305
-85.7496 -33.0967 834.817
-50.3283 -29.6189 736.465
-49.6912 -29.6205 736.247
-49.0647 -29.6285 736.186
-43.9785 -28.0171 695.174
-43.2635 -27.9454 693.153
-42.5738 -27.8881 691.49
-41.8977 -27.838 690.008
-41.239 -27.7981 688.777
-40.5834 -27.7591 687.569
-39.9349 -27.7236 686.45
-39.2936 -27.692 685.429
-38.6554 -27.6616 684.435
-38.023 -27.6341 683.518
-37.3919 -27.6067 682.601
-36.7657 -27.582 681.75
-36.1401 -27.5567 680.888
-35.5165 -27.532 680.039
-34.8971 -27.5096 679.248
-34.2811 -27.489 678.503
-33.6661 -27.4683 677.754
-33.053 -27.4484 677.026
-32.4436 -27.4306 676.351
-31.8344 -27.4123 675.663
-31.228 -27.3955 675.012
-30.6241 -27.3801 674.398
-30.0203 -27.3641 673.768
-29.4188 -27.3494 673.169
-28.8189 -27.3355 672.591
-28.2186 -27.3203 671.983
-27.6202 -27.3063 671.402
-27.0224 -27.292 670.816
-26.4243 -27.2766 670.204
-25.8278 -27.262 669.61
-25.2334 -27.2488 669.051
-24.6398 -27.2357 668.495
-24.0471 -27.2227 667.943
-23.4555 -27.21 667.399
-22.8652 -27.1982 666.874
-22.2748 -27.1853 666.324
-21.6867 -27.1744 665.824
-21.1 -27.1644 665.348
-20.5126 -27.1528 664.83
-19.9267 -27.1422 664.339
-19.3418 -27.1321 663.858
-18.7571 -27.1214 663.365
-18.1734 -27.1113 662.884
-17.5898 -27.1004 662.388
-17.0078 -27.091 661.925
-16.4256 -27.0802 661.431
-15.8452 -27.0715 660.986
-15.2661 -27.0642 660.576
-14.688 -27.0576 660.184
-14.1143 -27.0588 659.981
-13.5438 -27.0658 659.922
-12.9722 -27.0711 659.819
-12.3964 -27.0671 659.49
-11.8169 -27.0536 658.932
-11.2368 -27.0372 658.301
-10.6581 -27.0219 657.698
-10.0824 -27.0126 657.243
-9.50734 -27.0034 656.788
-8.93335 -26.9957 656.371
-8.36063 -26.9904 656.012
-7.78836 -26.9853 655.657
-7.21698 -26.9819 655.347
-6.64579 -26.9781 655.024
-6.07545 -26.9764 654.755
-5.50556 -26.9758 654.51
-4.93637 -26.9778 654.328
-4.36763 -26.9821 654.203
-3.7992 -26.9883 654.126
-3.23108 -26.998 654.13
-2.66294 -27.0095 654.18
-2.09433 -27.0191 654.185
-1.52528 -27.0246 654.087
-0.955772 -27.019 653.722
-0.386523 -27.0017 653.075
0.18181 -26.985 652.444
0.749617 -26.9811 652.119
1.31734 -26.9824 651.924
1.88502 -26.9852 651.763
2.45266 -26.9882 651.606
3.02023 -26.991 651.445
3.58793 -26.9953 651.322
4.15587 -27.0012 651.235
4.72419 -27.0088 651.191
5.29267 -27.0166 651.151
5.86176 -27.0266 651.162
6.43109 -27.0365 651.174
6.99872 -27.039 651.005
7.56448 -27.0351 650.683
8.12968 -27.0305 650.344
8.69666 -27.0326 650.166
9.26485 -27.0384 650.079
9.83289 -27.0437 649.978
10.4012 -27.0496 649.892
10.9698 -27.056 649.817
11.5378 -27.0608 649.705
12.1069 -27.0681 649.652
12.6763 -27.0757 649.608
13.2458 -27.0834 649.565
13.8147 -27.0895 649.482
14.3849 -27.0979 649.456
14.9551 -27.106 649.422
15.526 -27.115 649.411
16.0976 -27.125 649.422
16.6686 -27.1335 649.398
17.2402 -27.1427 649.391
17.8127 -27.1531 649.41
18.3853 -27.1632 649.425
18.9581 -27.1731 649.433
19.532 -27.1843 649.474
20.1069 -27.1965 649.538
20.6812 -27.2075 649.573
21.8327 -27.2321 649.703
22.4092 -27.2446 649.774
22.9875 -27.2589 649.886
23.5656 -27.2725 649.983
24.1437 -27.2857 650.069
24.7214 -27.298 650.134
25.3014 -27.3124 650.25
25.8822 -27.3273 650.376
26.4642 -27.3429 650.519
27.0452 -27.357 650.627
27.6274 -27.372 650.755
28.7939 -27.4027 651.026
29.3783 -27.4184 651.171
29.963 -27.4341 651.314
30.5481 -27.4496 651.454
31.7227 -27.4833 651.796
32.3104 -27.4998 651.958
32.9006 -27.518 652.161
33.4926 -27.5372 652.388
34.0817 -27.5535 652.546
34.6729 -27.5712 652.736
35.2673 -27.591 652.973
35.8594 -27.6085 653.158
37.0451 -27.6433 653.523
38.2301 -27.6761 653.839
38.8253 -27.6939 654.029
39.417 -27.7088 654.152
40.0089 -27.7236 654.272
40.5997 -27.7373 654.366
41.1923 -27.752 654.482
41.7791 -27.7626 654.502
42.3667 -27.7735 654.53
42.9539 -27.7839 654.546
43.5416 -27.7946 654.567
44.1287 -27.8047 654.575
44.7117 -27.8122 654.52
45.2925 -27.8181 654.431
45.8704 -27.8223 654.3
46.45 -27.8275 654.192
47.0279 -27.8317 654.061
47.6072 -27.8368 653.95
48.189 -27.8432 653.871
48.7742 -27.8515 653.837
229.184 -38.9991 850.777
229.755 -38.969 849.819
230.391 -38.9501 849.106
231.11 -38.9454 848.701
231.867 -38.9471 848.438
232.608 -38.9461 848.116
233.361 -38.9472 847.84
234.194 -38.9617 847.855
-82.741 -32.3283 832.572
-50.3255 -28.9735 736.486
-49.6857 -28.9736 736.227
-49.0559 -28.9794 736.116
-44.0061 -27.4261 695.674
-43.2859 -27.353 693.575
-42.5893 -27.2928 691.805
-41.9123 -27.2436 690.313
-41.2489 -27.2017 689.009
-40.5952 -27.165 687.836
-39.944 -27.1287 686.675
-39.3022 -27.0978 685.648
-38.6618 -27.0666 684.617
-38.0285 -27.0394 683.689
-37.3979 -27.0132 682.784
-36.7704 -26.9882 681.911
-36.1471 -26.9653 681.093
-35.5239 -26.9417 680.256
-34.9026 -26.9186 679.432
-34.2889 -26.9005 678.734
-33.6745 -26.881 678.004
-33.059 -26.8598 677.229
-32.4487 -26.8419 676.54
-31.8388 -26.8236 675.84
-31.2324 -26.8074 675.193
-30.6283 -26.7925 674.578
-30.025 -26.7775 673.961
-29.4239 -26.7637 673.376
-28.824 -26.7503 672.802
-28.2246 -26.7367 672.22
-27.6241 -26.7211 671.592
-27.027 -26.7081 671.028
-26.4299 -26.6943 670.444
-25.8348 -26.6818 669.894
-25.2399 -26.6688 669.329
-24.6466 -26.6566 668.787
-24.054 -26.6443 668.242
-23.4614 -26.6312 667.678
-22.8705 -26.6193 667.143
-22.2811 -26.6083 666.633
-21.6922 -26.5971 666.116
-21.105 -26.5871 665.629
-20.5189 -26.5778 665.162
-19.9325 -26.5672 664.661
-19.3481 -26.5586 664.211
-18.7636 -26.5489 663.733
-18.1791 -26.5384 663.237
-17.5948 -26.5273 662.724
-17.0127 -26.5185 662.27
-16.431 -26.5093 661.806
-15.8491 -26.499 661.315
-15.2709 -26.4938 660.951
-14.6962 -26.4944 660.732
-14.1244 -26.4999 660.637
-13.5525 -26.5054 660.54
-12.9734 -26.4962 660.077
-12.3911 -26.4791 659.417
-11.8098 -26.4619 658.756
-11.2316 -26.45 658.227
-10.655 -26.4402 657.75
-10.0801 -26.4334 657.349
-9.50601 -26.4274 656.968
-8.9326 -26.4222 656.604
-8.36033 -26.4191 656.296
-7.78789 -26.4144 655.948
-7.21615 -26.411 655.629
-6.64503 -26.4085 655.336
-6.07411 -26.4057 655.034
-5.50379 -26.4043 654.768
-4.93364 -26.4024 654.49
-4.36402 -26.4021 654.251
-3.79489 -26.4039 654.064
-3.22605 -26.407 653.909
-2.65745 -26.4119 653.8
-2.08925 -26.4225 653.831
-0.95227 -26.4494 654.033
-0.383126 -26.4581 654.017
0.186104 -26.4525 653.646
0.754595 -26.4361 653.009
1.32261 -26.428 652.578
1.89061 -26.4271 652.326
2.45865 -26.429 652.143
3.02691 -26.4339 652.032
3.5951 -26.438 651.902
4.16362 -26.4444 651.829
4.73242 -26.4517 651.779
5.30111 -26.4579 651.701
5.86952 -26.4625 651.583
6.4366 -26.4616 651.329
7.00305 -26.4591 651.039
7.56978 -26.4586 650.796
8.13765 -26.4626 650.662
8.70565 -26.467 650.54
9.27414 -26.4727 650.451
9.84238 -26.4777 650.343
10.4108 -26.483 650.242
10.9795 -26.4888 650.155
11.5484 -26.4951 650.079
12.118 -26.5026 650.033
12.6876 -26.5099 649.981
13.2573 -26.5172 649.93
13.8268 -26.5238 649.863
14.3973 -26.5321 649.836
14.9684 -26.5411 649.824
15.5385 -26.5482 649.769
16.11 -26.5571 649.758
16.6816 -26.5662 649.75
17.2534 -26.5751 649.737
18.3996 -26.596 649.787
18.9725 -26.6055 649.789
19.5467 -26.6166 649.831
20.122 -26.6287 649.896
20.6963 -26.6392 649.921
21.2718 -26.6508 649.974
21.8488 -26.6638 650.06
23.0049 -26.6911 650.265
23.5816 -26.7025 650.313
24.1599 -26.7154 650.395
24.7395 -26.7293 650.503
25.3205 -26.7442 650.637
25.9009 -26.7581 650.743
26.4823 -26.7725 650.864
27.0642 -26.7871 650.986
27.6472 -26.8023 651.126
28.2301 -26.817 651.251
28.8137 -26.8319 651.382
29.3976 -26.8466 651.51
29.9835 -26.8628 651.67
31.1559 -26.8944 651.975
32.333 -26.9282 652.333
32.9226 -26.9454 652.517
33.5136 -26.9632 652.716
34.106 -26.9817 652.932
34.6963 -26.9981 653.098
35.2894 -27.0162 653.305
35.8849 -27.0358 653.546
36.4759 -27.0515 653.695
37.6595 -27.0831 653.993
38.2533 -27.0998 654.165
38.847 -27.116 654.324
39.4395 -27.1311 654.458
40.0302 -27.1447 654.551
40.6214 -27.1583 654.649
41.2101 -27.1701 654.7
41.7979 -27.181 654.732
42.9716 -27.2012 654.753
43.5584 -27.2111 654.758
44.1437 -27.2198 654.736
44.7275 -27.2276 654.69
45.3084 -27.2335 654.601
45.8871 -27.2381 654.479
46.4654 -27.2424 654.351
47.0434 -27.2466 654.218
47.6214 -27.2507 654.086
48.2029 -27.2569 654.003
48.7899 -27.2661 653.99
49.3876 -27.2811 654.118
135.492 -33.7824 779.776
227.792 -38.2134 851.752
228.207 -38.1576 850.204
228.779 -38.1284 849.25
229.497 -38.1237 848.841
230.233 -38.122 848.5
230.971 -38.1206 848.166
231.714 -38.1202 847.853
232.512 -38.1288 847.743
233.312 -38.1378 847.639
234.142 -38.1516 847.642
-81.2434 -31.5845 831.5
-78.3382 -31.5776 830.131
-52.6634 -28.9098 752.169
-50.3283 -28.3312 736.589
-49.6865 -28.3303 736.302
-49.0597 -28.3379 736.238
-44.0383 -26.837 696.247
-43.3099 -26.7609 694.025
-42.6114 -26.7012 692.231
-41.9331 -26.6526 690.722
-41.2645 -26.6086 689.336
-40.6066 -26.5703 688.097
-39.9547 -26.5346 686.928
-39.3103 -26.5027 685.858
-38.67 -26.4726 684.833
-38.0333 -26.4439 683.846
-37.4056 -26.4204 682.995
-36.7783 -26.3963 682.129
-36.1544 -26.3739 681.305
-35.5326 -26.352 680.497
-34.9128 -26.3308 679.706
-34.2942 -26.3096 678.917
-33.678 -26.2894 678.154
-33.0651 -26.271 677.435
-32.4556 -26.2544 676.767
-31.8457 -26.2367 676.069
-31.239 -26.2209 675.42
-30.6332 -26.2051 674.772
-30.0303 -26.191 674.168
-29.4286 -26.1773 673.574
-28.828 -26.1638 672.987
-28.2284 -26.1504 672.403
-27.6299 -26.1374 671.829
-27.033 -26.1253 671.276
-26.4359 -26.1121 670.698
-25.8411 -26.1005 670.159
-25.2463 -26.0881 669.602
-24.6518 -26.0752 669.032
-24.0596 -26.0641 668.507
-23.4682 -26.0529 667.984
-22.8769 -26.0413 667.445
-22.2856 -26.0286 666.882
-21.6973 -26.0187 666.392
-21.1111 -26.0107 665.947
-20.5244 -26.0012 665.466
-19.9379 -25.9912 664.974
-19.3528 -25.9823 664.507
-18.7681 -25.973 664.031
-18.1842 -25.964 663.566
-17.5989 -25.9521 663.025
-17.017 -25.9443 662.589
-16.4349 -25.9354 662.123
-15.8549 -25.9289 661.721
-15.2764 -25.9241 661.362
-14.7045 -25.9301 661.278
-14.1325 -25.9362 661.199
-13.5538 -25.9296 660.793
-12.9697 -25.9112 660.089
-12.3865 -25.8927 659.381
-11.8074 -25.8809 658.845
-11.2314 -25.8745 658.447
-10.6564 -25.8694 658.082
-10.0814 -25.8632 657.69
-9.50715 -25.8579 657.318
-8.93356 -25.8532 656.964
-8.36045 -25.8487 656.616
-7.78808 -25.8454 656.297
-7.21569 -25.8408 655.944
-6.6442 -25.8381 655.643
-6.07312 -25.8359 655.352
-5.50237 -25.8339 655.068
-4.93198 -25.8323 654.792
-4.36212 -25.8323 654.557
-3.79249 -25.8325 654.328
-3.22301 -25.8324 654.091
-2.65378 -25.8329 653.871
-2.08498 -25.8365 653.728
-1.51643 -25.8441 653.688
-0.947901 -25.8557 653.747
-0.379119 -25.8722 653.931
0.190186 -25.8873 654.079
0.759756 -25.8951 654.041
1.32887 -25.8913 653.711
1.89739 -25.8843 653.3
2.46576 -25.8807 652.976
3.03402 -25.8794 652.709
3.60227 -25.8797 652.484
4.1703 -25.8798 652.253
4.7382 -25.8802 652.03
5.30593 -25.8806 651.807
5.87347 -25.8808 651.579
6.44126 -25.8829 651.399
7.00898 -25.8851 651.22
7.57719 -25.8892 651.092
8.14536 -25.8933 650.961
8.71397 -25.8987 650.865
9.28311 -25.9055 650.801
9.85163 -25.9103 650.69
10.4207 -25.9164 650.61
10.9898 -25.9226 650.532
11.5592 -25.929 650.46
12.1282 -25.9346 650.368
12.698 -25.9417 650.313
13.268 -25.9488 650.258
13.8379 -25.9555 650.194
14.4086 -25.9636 650.165
14.98 -25.9726 650.156
15.5509 -25.9804 650.118
16.6945 -25.998 650.093
17.2669 -26.0073 650.095
17.8406 -26.0183 650.135
18.4136 -26.0277 650.138
19.5622 -26.0493 650.213
20.1376 -26.0609 650.269
20.7123 -26.0712 650.294
21.2881 -26.0827 650.348
21.8648 -26.0948 650.416
22.4425 -26.1077 650.504
23.5997 -26.1343 650.7
24.1779 -26.1465 650.771
24.7572 -26.1595 650.861
25.3384 -26.1741 650.993
25.9201 -26.1887 651.123
27.0828 -26.2161 651.336
27.6662 -26.2311 651.477
28.2502 -26.2463 651.62
28.8336 -26.2604 651.738
29.4187 -26.2758 651.885
30.0038 -26.2907 652.022
30.591 -26.3071 652.194
31.1791 -26.3237 652.373
31.7666 -26.3395 652.53
32.9452 -26.3726 652.883
33.535 -26.389 653.054
34.128 -26.4074 653.276
34.7216 -26.4258 653.497
35.3133 -26.4423 653.673
35.9053 -26.4587 653.843
36.4978 -26.4751 654.013
37.0896 -26.4906 654.162
38.2766 -26.523 654.492
38.8704 -26.5388 654.648
40.0507 -26.5648 654.82
40.639 -26.5761 654.864
41.2284 -26.588 654.924
41.8183 -26.6 654.985
42.4037 -26.6091 654.972
42.9893 -26.618 654.959
43.5748 -26.6269 654.941
44.1593 -26.635 654.906
44.7422 -26.642 654.844
45.3226 -26.6475 654.744
45.9006 -26.6516 654.611
46.4773 -26.6549 654.458
47.0566 -26.6598 654.343
47.6343 -26.6638 654.206
48.2151 -26.6695 654.111
49.4021 -26.6944 654.255
226.147 -37.385 851.783
226.797 -37.369 851.111
227.295 -37.328 849.871
227.842 -37.2954 848.822
228.557 -37.2905 848.405
229.359 -37.2997 848.306
230.093 -37.298 847.962
230.833 -37.2973 847.639
231.598 -37.3005 847.407
232.448 -37.3175 847.487
233.256 -37.3277 847.413
234.086 -37.3413 847.416
-91.8001 -30.7559 833.205
-81.1422 -30.8229 830.511
-79.001 -30.8321 829.859
-73.946 -30.8273 827.638
-50.3356 -27.6911 736.758
-49.6972 -27.6923 736.523
-49.069 -27.6992 736.44
-48.4503 -27.7116 736.503
-43.3412 -26.1724 694.59
-42.6358 -26.1102 692.691
-41.9482 -26.0573 691.037
-41.2766 -26.0127 689.605
-40.6145 -25.9728 688.297
-39.9669 -25.9409 687.206
-39.3197 -25.9082 686.092
-38.6801 -25.8795 685.083
-38.0422 -25.8508 684.078
-37.413 -25.8271 683.203
-36.7858 -25.8039 682.342
-36.1596 -25.7805 681.478
-35.5366 -25.7585 680.65
-34.921 -25.7411 679.943
